# .PCD v0.7 - Point Cloud Data file format
VERSION 0.7
FIELDS x y z
SIZE 4 4 4
TYPE F F F
COUNT 1 1 1
WIDTH 119
HEIGHT 1
VIEWPOINT 0 0 0 1 0 0 0
POINTS 119
DATA ascii
0.22100304 0.22208299 1.9467432
0.20306289 0.21733138 1.9057112
0.18126521 0.22302254 1.95778
0.16319913 0.21702705 1.9055022
0.19785818 0.21272843 1.9886519
0.18122008 0.2094128 1.9582652
0.17030858 0.21271354 1.9901732
0.1519288 0.20644671 1.9318013
0.18426444 0.19914883 1.9923505
0.15567897 0.19785048 1.9807873
0.13968222 0.19463907 1.9490452
0.12604089 0.19437462 1.9469732
0.14324318 0.18578783 1.999992
0.10124441 0.18476751 1.9905659
0.086276263 0.16862459 1.9635558
0.071275383 0.16524729 1.9242693
0.073448204 0.15660734 1.9841321
-0.049484994 0.0061344528 1.9819776
-0.0348855 -0.0072955056 1.9282732
-0.060617521 -0.0072008409 1.9026289
-0.075739346 -0.0073991041 1.9551311
-0.074816294 -0.020597795 1.9310536
-0.034612879 -0.046720892 1.9127233
-0.088038251 -0.060418475 1.9286699
0.60152775 -0.076976731 1.9564539
-0.061750036 -0.11403094 1.9362967
-0.08767198 -0.12628476 1.9184989
-0.10202803 -0.12770228 1.9397795
-0.087386742 -0.1390544 1.9116141
0.64615631 -0.15754925 1.9089068
0.63109142 -0.15719447 1.9075958
-0.07665582 -0.15726027 1.9749259
-0.089991502 -0.15677263 1.9683812
0.62327075 -0.17240578 1.9278225
-0.089748278 -0.16988562 1.9622886
0.65434474 -0.20098624 1.9307259
-0.088670999 -0.19459483 1.9369234
-0.076434061 -0.23826261 1.9638457
-0.061251342 -0.25863165 1.9113545
0.64730901 -0.28081489 1.902951
0.0049620531 -0.27559367 1.9372411
-0.035286576 -0.27571863 1.937921
-0.047787827 -0.27053457 1.901009
-0.062270772 -0.27638555 1.9422051
-0.074336022 -0.27133322 1.906114
0.62400091 -0.30307013 1.9667126
0.59579039 -0.30302775 1.9722158
-0.049153741 -0.29180822 1.9544975
-0.063068278 -0.29354694 1.9659804
-0.087997608 -0.28602555 1.9145365
0.66499126 -0.32338914 1.9981121
0.6328792 -0.31455651 1.9461666
-0.035512749 -0.30449173 1.9478098
-0.049333952 -0.30646873 1.9603639
-0.061976664 -0.30185199 1.9303502
-0.074935697 -0.3001422 1.9190197
0.62204325 -0.32288119 1.9110759
0.61486387 -0.33387238 1.9826393
0.5885765 -0.32714131 1.9451828
0.58364266 -0.3322404 1.9785392
-0.034945991 -0.31291971 1.9150912
-0.061482422 -0.31272396 1.9134465
-0.074334919 -0.31093925 1.9021316
0.64972848 -0.35157233 1.9951755
0.63226718 -0.34983459 1.9882849
0.61754799 -0.34956893 1.9897348
0.58398819 -0.34655339 1.9781129
-0.022591924 -0.34026539 1.9969095
-0.035593554 -0.33225194 1.9493876
0.61977315 -0.34902373 1.9008462
0.61838347 -0.35608971 1.9426239
0.0051162983 -0.35329929 1.9907211
-0.02193022 -0.34375331 1.9364394
0.61650068 -0.37740588 1.9828783
0.54808086 -0.36961004 1.9525357
0.03243541 -0.36335844 1.9683357
0.018108713 -0.35093847 1.9006422
-0.0085069668 -0.35850906 1.9420214
-0.02181066 -0.35526001 1.9242131
0.60436416 -0.38391134 1.941744
0.55076313 -0.38540831 1.9603758
0.0049765273 -0.37054756 1.9326653
-0.0084264521 -0.36849129 1.9218472
-0.061289757 -0.36469415 1.9012495
0.59425789 -0.39119357 1.9071828
0.60075992 -0.40480757 1.97699
0.54457736 -0.40520418 1.9898266
0.060489859 -0.39519104 1.9870807
0.032037944 -0.38594207 1.9406313
0.0049266871 -0.38015178 1.9114515
0.59777027 -0.40728867 1.9166338
0.59195036 -0.42282173 1.9961015
0.53145653 -0.42024463 1.9944731
0.51312745 -0.41690725 1.980971
0.04537357 -0.39786005 1.9308316
0.031477414 -0.39247125 1.9046456
0.018298468 -0.39468539 1.9155918
0.58551323 -0.4221721 1.922529
0.57702672 -0.42610994 1.943392
0.57449299 -0.43474761 1.9858698
0.52595925 -0.42997208 1.971681
0.50387371 -0.4232429 1.9430006
0.49597722 -0.42838863 1.9691881
0.045101315 -0.40885594 1.9173126
-0.022025788 -0.41281518 1.9362977
0.56514961 -0.43100005 1.9010501
0.54663658 -0.43805909 1.9377815
0.54025197 -0.444226 1.9678802
0.50778502 -0.44048989 1.9561505
0.058807824 -0.42457348 1.9258426
0.56397331 -0.45472708 1.9450226
0.54190117 -0.44802853 1.9187605
0.4525218 -0.44140202 1.9041909
0.45330155 -0.45582226 1.9690744
0.43697363 -0.46734035 1.9584976
0.41242281 -0.46918696 1.9087362
0.40217698 -0.47310913 1.9267488
0.32878423 -0.49310896 1.9020965
0.3171348 -0.49598962 1.9148186
