# .PCD v0.7 - Point Cloud Data file format
VERSION 0.7
FIELDS x y z
SIZE 4 4 4
TYPE F F F
COUNT 1 1 1
WIDTH 1423
HEIGHT 1
VIEWPOINT 0 0 0 1 0 0 0
POINTS 1423
DATA ascii
0.18985246 0.19734386 0.97649336
0.19241588 0.2075931 1.0289204
0.18570554 0.20825073 1.0331085
0.18519673 0.21620212 1.0740194
0.17592654 0.2141681 1.0646031
0.16860871 0.21443523 1.066748
0.15953729 0.21239281 1.0571959
0.14881657 0.20784633 1.0349401
0.14050655 0.20637117 1.0281504
0.13714235 0.21239515 1.059261
0.13135742 0.21514782 1.0738109
0.12404884 0.21558881 1.0766317
0.11930806 0.22084017 1.103798
0.10894498 0.21569128 1.0782216
0.10111377 0.21515973 1.0760078
0.092480712 0.21269809 1.0639622
0.086637385 0.2167839 1.0851107
0.079522654 0.2181696 1.0925269
0.071420759 0.21685375 1.0861892
0.061141547 0.20782274 1.0406091
0.054192934 0.20919786 1.0478612
0.048226364 0.2153908 1.0795748
0.039312411 0.20827514 1.0435976
0.03279395 0.21349822 1.0703218
0.024719981 0.20868927 1.0459961
0.017240845 0.20696266 1.0373099
0.0099479463 0.20658293 1.0354404
0.0026641414 0.20484972 1.0266525
-0.0044934792 0.20292042 1.016834
-0.011636854 0.20310973 1.0177603
-0.018436635 0.19943824 0.99901634
-0.025199438 0.1974998 0.98905748
-0.032453224 0.19941565 0.99866909
-0.038161907 0.19284306 0.96508729
-0.044711251 0.1918605 0.9599027
-0.051139068 0.1906824 0.95369548
-0.058243468 0.19200775 0.96018022
-0.064330749 0.19005296 0.94996905
-0.070639782 0.18905945 0.94461435
-0.074672394 0.18266807 0.91183263
0.26288292 0.17874992 0.90314507
0.2573148 0.17940791 0.90776134
0.2501522 0.1789595 0.90665281
0.24978948 0.18348192 0.9311493
0.2464141 0.18597925 0.94521064
0.24309452 0.18866111 0.96022344
0.24420036 0.19503342 0.99434108
0.23429863 0.19273286 0.98354656
0.2300036 0.19504471 0.99662358
0.21983771 0.1923667 0.98377329
0.22008824 0.19892728 1.0188944
0.21372928 0.19975714 1.0242234
0.20960252 0.20280534 1.0410812
0.20045424 0.20104012 1.0328351
0.19783509 0.20593749 1.0593069
0.19331886 0.20916836 1.0770822
0.18428861 0.20757985 1.0696568
0.17821173 0.20932437 1.0796182
0.17442459 0.2140346 1.1050826
0.16437227 0.21113795 1.090695
0.15989853 0.2154744 1.1141682
0.15222636 0.21572597 1.1162065
0.14453378 0.21597448 1.1181934
0.13776147 0.21770591 1.1279328
0.1284239 0.21534728 1.1161537
0.12393845 0.22134738 1.1482689
0.11424716 0.21823823 1.1324656
0.099644281 0.22111841 1.1486012
0.088678181 0.21409106 1.1120317
0.082087323 0.21728989 1.1292706
0.072785594 0.21322985 1.108233
0.058663804 0.2184967 1.1365955
0.050536655 0.21777558 1.1330423
0.041223198 0.21072182 1.0960498
0.033667732 0.21148254 1.1002332
0.025645029 0.20888887 1.0866852
0.017650243 0.20442982 1.0632569
0.010240356 0.20518054 1.0672817
0.0026979309 0.20015618 1.0407985
-0.0046578236 0.20294864 1.0555295
-0.011719326 0.19735941 1.025999
-0.018926315 0.19753903 1.0268769
-0.025973642 0.19641234 1.02083
-0.032812785 0.19453806 1.0108082
-0.04050744 0.19750078 1.0262686
-0.046484005 0.19245642 0.99946731
-0.051626921 0.18573515 0.96380436
-0.058502834 0.18608376 0.96539062
-0.064946197 0.185127 0.9600665
-0.071174771 0.18379562 0.95274121
-0.077935733 0.18394978 0.95321214
-0.082909808 0.18019588 0.93308115
-0.087886676 0.17699847 0.91586339
-0.093620539 0.17565849 0.90839887
0.27002287 0.17691611 0.92894751
0.26665875 0.17914966 0.94214821
0.25462961 0.17552653 0.92400151
0.25942409 0.18361694 0.96854103
0.25726345 0.18709423 0.9884029
0.24319285 0.18186174 0.9614892
0.24337485 0.1872931 0.99182349
0.245395 0.19450694 1.0317855
0.23924881 0.19549367 1.0382347
0.23640606 0.19932862 1.060026
0.22979553 0.20013468 1.0654649
0.22430959 0.20200843 1.0766472
0.21179299 0.1974594 1.053058
0.21180059 0.2046812 1.0931374
0.20378986 0.20440809 1.0926216
0.19665322 0.2050247 1.0968932
0.1883153 0.20438816 1.0943292
0.1784433 0.20196082 1.0819921
0.17767224 0.2100773 1.126933
0.16877539 0.20889604 1.1213063
0.16203165 0.21039452 1.1302247
0.15268284 0.20849046 1.1205773
0.10727017 0.21221356 1.1444769
0.099602237 0.21297319 1.1491023
0.058338568 0.20936967 1.1311818
0.042224228 0.20797582 1.124005
0.03430457 0.20763279 1.1222998
0.025998835 0.20405599 1.102837
0.018124059 0.20227043 1.0931519
0.010532867 0.20335324 1.0991517
0.0029124836 0.20820208 1.1257588
-0.0047880402 0.20102228 1.0864017
-0.011989727 0.19455743 1.05093
-0.019719506 0.1983199 1.0714786
-0.02628015 0.19149043 1.0339472
-0.033863246 0.19345208 1.0445592
-0.040906452 0.19218044 1.0374219
-0.047403075 0.18911184 1.0204116
-0.054081004 0.18747611 1.0112221
-0.059580941 0.18260904 0.98431396
-0.065887697 0.18096881 0.97504944
-0.072573982 0.18058155 0.97261441
-0.078441456 0.17839867 0.96032828
-0.08448533 0.17693086 0.95192963
-0.09004768 0.17474404 0.93957692
-0.094254367 0.17040519 0.91544861
-0.10035568 0.16982776 0.91184932
0.27805418 0.16701622 0.90936559
0.2719377 0.16729061 0.91219074
0.27689391 0.17455903 0.95382023
0.27600616 0.17841899 0.97657394
0.26863667 0.17818092 0.97653484
0.26002684 0.17708541 0.97167784
0.25638592 0.17940667 0.98583943
0.25636771 0.18446586 1.0152949
0.24647577 0.1825082 1.0055292
0.24526645 0.18705511 1.0321296
0.24435623 0.19211815 1.061643
0.23797843 0.19306819 1.0680976
0.23602729 0.19779032 1.0957161
0.22915143 0.19856666 1.1011617
0.21934116 0.19676527 1.0920694
0.21077606 0.19599013 1.0887024
0.20333658 0.1962425 1.0910841
0.20341477 0.20405613 1.1360999
0.027038816 0.20419504 1.1485146
0.010853362 0.2016187 1.1340003
0.0029212052 0.20093042 1.1301075
-0.0048455871 0.1957469 1.1005517
-0.012581058 0.19643451 1.1044321
-0.02006674 0.19418205 1.0915176
-0.027448924 0.19244501 1.081508
-0.034725513 0.19087788 1.0724349
-0.041687295 0.18844438 1.0583932
-0.048187211 0.18497203 1.0384046
-0.055086665 0.18374255 1.0311658
-0.061771519 0.18216515 1.0219163
-0.069311395 0.18317498 1.0273674
-0.073973261 0.17710438 0.99248785
-0.079892837 0.17482997 0.97919571
-0.084433876 0.17013793 0.95213294
-0.093040682 0.17372599 0.97212809
-0.096275449 0.16747847 0.93618983
-0.10113746 0.16467999 0.91984147
-0.10758123 0.16463873 0.91912949
0.2862832 0.16139318 0.91421831
0.28355005 0.16362514 0.92843652
0.2853494 0.16864373 0.958754
0.28159991 0.17055033 0.97111607
0.28112918 0.17458998 0.99582738
0.2705406 0.1723929 0.98439425
0.26715451 0.17479064 0.99957424
0.26479509 0.17801042 1.0195323
0.26336327 0.18205345 1.044291
0.25836495 0.18379462 1.0556537
0.25209957 0.18471181 1.0621952
0.2440124 0.1843096 1.0610055
0.24758276 0.19296771 1.1127431
0.23591198 0.1899258 1.0960753
0.22983292 0.19133176 1.1053895
0.22191381 0.19125102 1.1059645
0.2114297 0.19603547 1.1360497
0.20554982 0.19809586 1.1491205
-0.0050057909 0.19427294 1.1383473
-0.012895939 0.19343929 1.1333559
-0.020360367 0.18928185 1.1085918
-0.02795268 0.1882764 1.1025118
-0.035525076 0.18760006 1.0983522
-0.043309078 0.18808296 1.1010399
-0.049916472 0.18408114 1.0770758
-0.056299459 0.18040918 1.0550445
-0.062791444 0.17789698 1.0398695
-0.069926664 0.17753965 1.0374485
-0.074074283 0.17037784 0.99465615
-0.080160692 0.16852355 0.98331416
-0.086437106 0.16733073 0.97586685
-0.093169332 0.1671306 0.97427213
-0.099387743 0.16609913 0.96772623
-0.10520263 0.16456841 0.95820093
-0.11066569 0.16270451 0.94668329
-0.11513913 0.15967962 0.92828506
0.30558559 0.15453915 0.90922487
0.30405313 0.15715328 0.92633158
0.29576725 0.15631601 0.92273813
0.29219392 0.15798815 0.93417799
0.29046544 0.16076027 0.95223379
0.29016709 0.1644771 0.97599626
0.29632732 0.17212965 1.0235404
0.28572315 0.17018558 1.0131718
0.2768237 0.16918202 1.0084271
0.27001351 0.16943578 1.0112494
0.26586887 0.17142215 1.0245506
0.26702824 0.17703737 1.0598849
0.26401168 0.18013012 1.0799228
0.26095694 0.18338147 1.1009303
0.26067981 0.18884587 1.1354293
0.2521145 0.188463 1.1342887
0.23927578 0.18475522 1.1128006
0.23665579 0.18895394 1.1395572
0.2262089 0.18697912 1.1285533
-0.0050033997 0.1862382 1.1386585
-0.028949574 0.18701592 1.1432469
-0.036670666 0.18572947 1.1351285
-0.044090189 0.18364389 1.1220268
-0.052006535 0.18394469 1.1236718
-0.058911301 0.18105768 1.1055444
-0.065041706 0.17673558 1.0785078
-0.070933595 0.1727303 1.0534114
-0.078359172 0.17286199 1.0538869
-0.084847532 0.17108122 1.0425022
-0.091782801 0.17041224 1.0379643
-0.098289758 0.16910453 1.0294501
-0.10279863 0.16477293 1.0022336
-0.10630175 0.15948665 0.96911651
-0.11115794 0.15674405 0.95169413
-0.11721324 0.15590759 0.94601291
-0.12104987 0.1523682 0.92364836
-0.12750955 0.1523229 0.92280036
-0.13144892 0.14941722 0.90431553
0.31744602 0.15044673 0.9240694
0.30847937 0.14935002 0.91870922
0.31083447 0.15380718 0.948084
0.3009178 0.15225612 0.93981498
0.29578012 0.15310724 0.94657516
0.30135781 0.15967622 0.98929304
0.30386391 0.16489589 1.0235903
0.29100975 0.16183223 1.0056777
0.2892586 0.1649442 1.0266935
0.28774819 0.16835926 1.0496409
0.28015712 0.16830412 1.0506254
0.28088591 0.17338154 1.0841208
0.27164418 0.17241761 1.0792974
0.27058434 0.17674185 1.1080354
0.26801801 0.18031172 1.1319962
0.26295286 0.18236916 1.1463323
-0.051619943 0.17479151 1.1160147
-0.059606399 0.1753819 1.1195837
-0.066823721 0.17383459 1.1092849
-0.074032977 0.17258987 1.1009134
-0.081491172 0.17210506 1.0974252
-0.085746609 0.16552119 1.0544814
-0.091901556 0.16335627 1.040087
-0.09999007 0.16469382 1.0482911
-0.10531709 0.16161096 1.0279173
-0.1102627 0.15837476 1.0065391
-0.11525772 0.15559444 0.98808903
-0.11845045 0.15083452 0.95686507
-0.12475495 0.1503354 0.95309335
-0.12968318 0.14831315 0.9394877
-0.13568796 0.14765847 0.93466675
-0.13884981 0.14411363 0.91123688
0.32628506 0.14469324 0.92942894
0.31786543 0.14393525 0.92601401
0.31416175 0.14532602 0.93662494
0.31731206 0.15001857 0.96889287
0.31052473 0.15011841 0.97104013
0.30517727 0.15093499 0.97787011
0.30401343 0.1539081 0.99889189
0.30535138 0.15832213 1.0294418
0.29435787 0.15640263 1.01818
0.29755297 0.16211607 1.057356
0.29196984 0.16322002 1.0660514
0.29080611 0.16691972 1.0919474
0.28342643 0.16715688 1.0948666
0.27506849 0.16681418 1.093895
0.27785218 0.17340493 1.1390387
-0.059782594 0.16806512 1.1237177
-0.074516557 0.16597924 1.1089751
-0.081591532 0.16464144 1.0995601
-0.088224702 0.16271882 1.0861571
-0.095620863 0.16239648 1.0835581
-0.10011704 0.15755761 1.0503749
-0.10763714 0.15781386 1.0516356
-0.11369445 0.15602981 1.0390724
-0.11563571 0.14915127 0.99207574
-0.12494766 0.15202083 1.0109054
-0.13022913 0.14994174 0.9962911
-0.13252161 0.1448084 0.96106535
-0.13601384 0.14142011 0.93761086
-0.14094834 0.1397754 0.92589724
-0.14618814 0.13856542 0.91709375
0.32564273 0.13488743 0.90758765
0.32541633 0.13758038 0.92758715
0.31828043 0.13740414 0.9279148
0.31860226 0.14050926 0.95076698
0.31528443 0.14211078 0.96329528
0.32310557 0.14891836 1.0117295
0.31602961 0.14901553 1.0139146
0.31149793 0.15034531 1.0245908
0.31322202 0.15483175 1.0571219
0.30502439 0.15451442 1.0563791
0.30320257 0.1574928 1.078483
0.29876992 0.15923493 1.0920044
0.28913796 0.15822504 1.0863549
0.28939205 0.16271836 1.1190157
-0.076177292 0.16176797 1.1347843
-0.083424196 0.16049154 1.1253488
-0.090545081 0.15921299 1.1158686
-0.096081309 0.1555711 1.0895733
-0.10227888 0.15345585 1.0741023
-0.11075174 0.15481018 1.0832322
-0.11426227 0.1494986 1.0450354
-0.12007488 0.14765672 1.0314406
-0.12594545 0.146091 1.0197831
-0.12926091 0.14188865 0.98943251
-0.13669091 0.14240089 0.99245244
-0.14095238 0.13972254 0.97286826
-0.14333926 0.13551955 0.94249994
-0.14914812 0.13478035 0.93660742
-0.15536298 0.13445504 0.9336127
-0.16021018 0.13302062 0.922768
-0.16300842 0.13006328 0.9011761
0.33911785 0.12839867 0.90580177
0.33108416 0.12784564 0.90343827
0.34782788 0.1370316 0.97114092
0.33779553 0.13583051 0.96412498
0.33294657 0.13670698 0.97205073
0.32583368 0.13667162 0.9733634
0.32996163 0.14145365 1.0095448
0.32439071 0.14219962 1.0165064
0.32426649 0.14542268 1.0414482
0.31670809 0.14538519 1.0426904
0.31275994 0.14704326 1.0562507
0.3083702 0.14857067 1.0688527
0.29667711 0.14656764 1.0556469
0.29860154 0.15136302 1.0921086
0.30180001 0.1570781 1.1353576
0.29192844 0.15611784 1.1297065
-0.098514326 0.1517105 1.118259
-0.10453317 0.14916873 1.0988094
-0.11128329 0.14794669 1.0891939
-0.11917989 0.14830767 1.0913656
-0.12395065 0.14496933 1.0659066
-0.12777945 0.14097051 1.0355155
-0.13321945 0.13908309 1.0208549
-0.13939628 0.13811807 1.0130459
-0.14365391 0.13543713 0.99244398
-0.15115407 0.13591985 0.99536175
-0.15425441 0.13257836 0.96982312
-0.15893224 0.13081808 0.95602995
-0.16159378 0.12760857 0.93147093
0.34469438 0.12380008 0.9215607
0.35000467 0.12820299 0.9565782
0.34363776 0.1284204 0.95988733
0.34241673 0.13060962 0.97816575
0.33906054 0.13205965 0.99082977
0.34206617 0.13610351 1.0232868
0.33643672 0.13681409 1.0303251
0.33162016 0.13789476 1.0401746
0.33192161 0.14120249 1.0670836
0.32504478 0.14154057 1.0712284
0.3170163 0.14138143 1.071519
0.31985205 0.14617954 1.1099297
-0.10863955 0.14705791 1.1432631
-0.11479515 0.144769 1.1247267
-0.12112628 0.14298016 1.1101069
-0.12703644 0.14093938 1.0934836
-0.13344239 0.139649 1.0827421
-0.13553479 0.13422526 1.0394924
-0.13957079 0.1311809 1.0149473
-0.14691454 0.13138989 1.0159354
-0.14958556 0.12759376 0.98547155
-0.15537356 0.12667441 0.97756606
-0.15977952 0.12475378 0.96179545
-0.16247535 0.12170807 0.93720955
-0.16987371 0.1222852 0.94096303
-0.17390729 0.12048777 0.92612219
0.35125968 0.11484879 0.90088081
0.35367352 0.11784612 0.92651105
0.35643801 0.12107926 0.95408016
0.34841558 0.12070381 0.95275968
0.34010008 0.12020954 0.9504379
0.34638861 0.1249634 0.99030381
0.34897649 0.12855475 1.0208867
0.34184673 0.12864403 1.0232493
0.34047839 0.13095319 1.0435265
0.33825371 0.13302965 1.0619377
0.34248585 0.13779977 1.1022061
0.33025217 0.13601366 1.0892967
0.32988566 0.1391468 1.1163166
0.32807922 0.14181274 1.1395607
-0.12232861 0.13657288 1.1219159
-0.13091274 0.13736783 1.1279603
-0.13455746 0.13318363 1.0925406
-0.1362053 0.12757821 1.0453078
-0.14254078 0.12671098 1.0374658
-0.14835535 0.12548718 1.0266382
-0.15358821 0.12390725 1.0128347
-0.15863891 0.12232649 0.99900907
-0.16094516 0.11885284 0.96948361
-0.16569093 0.11738963 0.95661604
-0.17321874 0.11793471 0.96035141
-0.17431612 0.11422515 0.92887515
-0.17573829 0.11098924 0.9013319
-0.1826006 0.11129513 0.90303314
0.36380196 0.11007063 0.91495353
0.36806068 0.1134457 0.9452697
0.36423814 0.11441122 0.95521313
0.35618395 0.11405926 0.95395255
0.35321203 0.11535311 0.96665651
0.35734275 0.11906597 0.99999076
0.35844508 0.12190243 1.0259072
0.3512834 0.12198881 1.028335
0.35156026 0.1247178 1.0533725
0.3490783 0.12656681 1.0708914
0.34280273 0.1270927 1.0770457
0.34169942 0.12960464 1.1002703
0.34257057 0.13300174 1.1311477
0.33803114 0.13441168 1.1449122
-0.12406079 0.1305694 1.1386296
-0.13185157 0.13042441 1.1367691
-0.13950288 0.13016574 1.1338696
-0.1395306 0.12320333 1.0717803
-0.14417771 0.12082135 1.0501227
-0.15035468 0.11989015 1.0412436
-0.15700376 0.11940414 1.0362618
-0.1606759 0.11679709 1.0125837
-0.16435158 0.11441316 0.99086744
-0.16840509 0.11247516 0.97306859
-0.1729171 0.11098266 0.95917612
-0.17905 0.11060352 0.95504165
-0.17821541 0.10610362 0.91475612
-0.18632843 0.10705909 0.9222908
0.36565685 0.10585342 0.93952101
0.36467266 0.10758432 0.95690423
0.3590107 0.10797574 0.96217954
0.35834211 0.10991431 0.98146254
0.36468768 0.11412645 1.0214235
0.36273628 0.1158626 1.0389431
0.3605628 0.11759962 1.0564833
0.35412866 0.11799192 1.0617585
0.35341927 0.12035102 1.0849882
0.34883711 0.12146793 1.0968689
0.34789449 0.12393288 1.1211013
0.33724514 0.12297464 1.1139219
-0.13244982 0.12305168 1.142572
-0.13690291 0.11997446 1.1130116
-0.14614531 0.12119941 1.1238881
-0.14567995 0.11465894 1.0617627
-0.15151255 0.11346914 1.0499134
-0.1568962 0.1120687 1.0360681
-0.163479 0.1116107 1.0310429
-0.16551405 0.10821802 0.9984948
-0.16928162 0.1061876 0.9787147
-0.17643304 0.10635544 0.97949487
-0.18071748 0.10484734 0.96457559
-0.18405798 0.10292057 0.94573784
-0.18714929 0.10099392 0.9269011
-0.18999161 0.099067494 0.90806782
0.36594114 0.095500231 0.90275896
0.36577719 0.097213149 0.92100626
0.36395812 0.098542124 0.93557483
0.36859593 0.10170345 0.96786934
0.36629197 0.10303519 0.98251683
0.36245954 0.10398132 0.99343091
0.36245742 0.10608686 1.0156063
0.37058422 0.11070788 1.0622994
0.36698651 0.11194751 1.07613
0.36290714 0.11309049 1.089015
0.36505806 0.11626819 1.1217957
-0.15291327 0.11256223 1.1157746
-0.1537891 0.10771944 1.0664269
-0.16089669 0.10748759 1.0633838
-0.16704859 0.10666601 1.0543948
-0.1700401 0.10398134 1.0267109
-0.17382962 0.10198285 1.0059049
-0.17768991 0.10018021 0.98705655
-0.18364581 0.099650078 0.98092729
-0.18615864 0.097357661 0.95716947
-0.18913035 0.095456965 0.93732953
-0.1960492 0.095609531 0.93796647
-0.19718628 0.093024522 0.91129726
0.37228191 0.090431459 0.91912049
0.37563211 0.092923485 0.9466992
0.37897816 0.095507868 0.97529608
0.38264954 0.098274477 1.0058475
0.37974578 0.099427275 1.0196635
0.37094954 0.099052399 1.0175515
0.37573916 0.10236358 1.0538921
0.37486911 0.10423791 1.0752747
0.36928329 0.10485241 1.0834776
-0.15161341 0.10388182 1.1066476
-0.15536387 0.1012915 1.0779815
-0.1643091 0.10217092 1.0867454
-0.1664708 0.098940872 1.0511618
-0.17232138 0.098083884 1.0411556
-0.17470257 0.095401913 1.0114853
-0.1812032 0.095090993 1.0073277
-0.18549004 0.093685322 0.99137729
-0.18881883 0.091915049 0.97150427
-0.19769941 0.092876583 0.98093778
-0.200302 0.090923436 0.95908093
-0.19805738 0.086969353 0.91580653
-0.20185949 0.08583653 0.9027617
0.38974375 0.084579185 0.92557305
0.37539271 0.082910009 0.90883338
0.37935701 0.085298762 0.93730843
0.37461644 0.085782103 0.94452709
0.38118571 0.088921867 0.981511
0.37573195 0.089323297 0.9878307
0.38427854 0.093133464 1.0324817
0.38381416 0.094867676 1.0538458
0.37845305 0.095437273 1.0620883
0.37461728 0.09642306 1.0750189
0.38363338 0.10082824 1.126677
0.37983733 0.10198346 1.1415819
0.3718999 0.10205316 1.1441513
-0.15931897 0.096147388 1.1062692
-0.16933598 0.097467974 1.1209248
-0.16896226 0.092955351 1.067564
-0.17732659 0.0934285 1.0722867
-0.17924835 0.090606637 1.0386348
-0.18714789 0.090908721 1.041312
-0.18697122 0.08741235 0.99983245
-0.19110286 0.086110391 0.98385262
-0.19638208 0.085398391 0.97470623
-0.19693287 0.082747675 0.94308531
-0.20099795 0.081698462 0.93002325
-0.2057495 0.080985785 0.92084384
-0.20972365 0.080020197 0.90872866
0.38968045 0.076440625 0.90781772
0.38676032 0.077190243 0.9187597
0.38821101 0.078854255 0.94079
0.39011648 0.080672428 0.96473527
0.38519055 0.081118815 0.97202957
0.39228785 0.084161416 1.0109679
0.38698459 0.084608972 1.0182989
0.38434619 0.085667945 1.0330935
0.38152474 0.086727351 1.0478997
0.38479552 0.0892426 1.0805895
0.390228 0.092373557 1.1209161
0.39100102 0.094510466 1.1490784
-0.16745818 0.088645197 1.1087439
-0.17145203 0.086748801 1.0839337
-0.17768052 0.086095706 1.0748665
-0.18128687 0.084276654 1.0510226
-0.1838806 0.082147181 1.0232548
-0.18664496 0.080251008 0.9984439
-0.19244879 0.079751663 0.99127132
-0.19486727 0.077933274 0.96744186
-0.20238498 0.078208148 0.9699958
-0.20580187 0.076932117 0.95298839
-0.2062152 0.07464949 0.92332178
-0.20887992 0.0732968 0.90536362
-0.21539907 0.073336862 0.90488738
0.39517188 0.070747726 0.92118686
0.39712209 0.07233613 0.94415337
0.38902342 0.072118029 0.94315559
0.39976755 0.075448237 0.98936349
0.40119877 0.077111013 1.0134548
0.39662337 0.077659972 1.0227016
0.39473888 0.078766845 1.039407
0.38887012 0.079106309 1.045831
0.38899586 0.080702901 1.0691248
0.39642012 0.083909012 1.1141176
0.39417809 0.085159384 1.1328423
-0.16161925 0.081867211 1.1232772
-0.17071927 0.082478769 1.1310276
-0.17532298 0.080959998 1.1091392
-0.17755063 0.078518979 1.0744437
-0.18081661 0.076716729 1.0486225
-0.18512887 0.075481705 1.0306664
-0.19299571 0.07573431 1.0333029
-0.19435397 0.073507003 1.0015893
-0.19800329 0.072271518 0.98360586
-0.20502725 0.072309621 0.9832086
-0.20687312 0.070578627 0.95836908
-0.20817561 0.068777561 0.93257767
-0.21045937 0.067401148 0.91265172
0.39416668 0.062739998 0.90149486
0.39096266 0.063296139 0.91153359
0.39260125 0.064669333 0.93355894
0.3909559 0.065540746 0.94825023
0.39392424 0.067231029 0.97501796
0.39437032 0.068545111 0.9962905
0.39668131 0.07023865 1.0232079
0.39060044 0.070482567 1.0287037
0.39991185 0.073567547 1.076334
0.40218994 0.075455494 1.1062888
0.40639049 0.077787898 1.1429158
0.3981235 0.077780969 1.1447244
-0.1787314 0.074635938 1.1313577
-0.18736364 0.074929565 1.1350366
-0.18886746 0.072464354 1.0963454
-0.18985181 0.069999956 1.0576891
-0.19537301 0.069330618 1.0465541
-0.19869125 0.067956269 1.0246118
-0.20133121 0.066454045 1.0007168
-0.20546015 0.065528102 0.98563343
-0.20649028 0.063706584 0.95687515
-0.20735161 0.061949797 0.92912549
-0.21380121 0.061919112 0.92768854
-0.2193321 0.061632104 0.92232072
0.3954007 0.056276467 0.9046545
0.40187514 0.058177888 0.93770427
0.41096869 0.060531359 0.97826487
0.40864366 0.061256647 0.99216086
0.40836263 0.062320068 1.011637
0.40457267 0.062877268 1.0227828
0.40029478 0.063378103 1.0329907
0.39799631 0.064217433 1.0487988
0.40580109 0.066751353 1.0927489
0.40898085 0.068610013 1.1255746
0.40479219 0.0692828 1.1387093
-0.1789103 0.066804752 1.1328266
-0.18931521 0.067698382 1.1473452
-0.19190289 0.065837547 1.1145303
-0.19561647 0.064493105 1.0905837
-0.20154046 0.063951038 1.0803864
-0.19590954 0.059914406 1.0103415
-0.20213519 0.059659157 1.0050637
-0.20849878 0.059460476 1.0007267
-0.21108058 0.058231484 0.97877204
-0.21808101 0.058260631 0.97828376
-0.21515472 0.055717338 0.93393087
-0.21799834 0.054775063 0.91688609
0.40656382 0.050172254 0.91326231
0.40688008 0.051057011 0.93162996
0.40657723 0.05189307 0.94912386
0.41101635 0.053374063 0.97865516
0.41094291 0.054311216 0.9981094
0.41283736 0.055546988 1.0231763
0.4067952 0.055740718 1.0287716
0.39998537 0.055834543 1.0324659
0.40224022 0.057221457 1.0604385
0.40756544 0.059107665 1.097868
0.40262726 0.059550758 1.1081522
-0.20120575 0.058485448 1.1224685
-0.20210734 0.056541454 1.0837436
-0.20492506 0.055254836 1.0578141
-0.2041003 0.053110249 1.0152435
-0.2103308 0.052884366 1.0099137
-0.20986234 0.051043868 0.97328418
-0.21703759 0.051120121 0.97378016
-0.21893297 0.049986206 0.95084727
-0.22279927 0.049356341 0.93766057
-0.22134857 0.047619 0.90310591
0.41602236 0.043022964 0.90063673
0.40971985 0.043061614 0.90347135
0.40340012 0.043099701 0.90626138
0.39903516 0.043351438 0.91359711
0.4128263 0.045618083 0.96418637
0.40914974 0.045999896 0.97438014
0.41361195 0.047326513 1.0049378
0.41287941 0.048095908 1.0235313
0.40756187 0.048349686 1.0309896
0.41213751 0.049808603 1.0645586
0.42082128 0.0518292 1.1104028
0.41378826 0.051955082 1.1151328
0.40367964 0.051692117 1.1113541
-0.19495742 0.051054593 1.1330514
-0.20261902 0.050990704 1.130711
-0.21025781 0.050926104 1.1283194
-0.2015752 0.047056075 1.040502
-0.20528656 0.046248604 1.0214617
-0.20874771 0.045441177 1.0024209
-0.21029972 0.044284441 0.97556365
-0.21684687 0.044219457 0.97312981
-0.22204654 0.043892104 0.96480656
-0.22668841 0.043477237 0.95451301
-0.23096654 0.043018576 0.94323063
-0.23077029 0.041775677 0.91448218
-0.23439629 0.041273691 0.90223765
0.4168846 0.036428079 0.90272921
0.41219664 0.036605343 0.9092204
0.41144761 0.03714408 0.92484474
0.41563189 0.03815382 0.952438
0.41247404 0.038512625 0.96355397
0.42445335 0.040321931 1.0116138
0.42190593 0.040790949 1.0256127
0.41365337 0.040715352 1.0256927
0.41485015 0.041584175 1.0499197
0.41466722 0.042344663 1.071409
0.40686449 0.042341221 1.0732859
0.42000628 0.044559713 1.1323534
0.41685778 0.045103699 1.1483716
-0.20106418 0.04114905 1.0785145
-0.213772 0.042166367 1.104602
-0.21462007 0.040854994 1.0688071
-0.21137661 0.038879577 1.0154333
-0.21633419 0.038492348 1.0041915
-0.21601045 0.037219606 0.96950364
-0.22206691 0.037090525 0.96508282
-0.2310296 0.037440099 0.97327566
-0.22771123 0.035836715 0.92990011
-0.23536383 0.036001462 0.93317348
-0.24059954 0.035797611 0.92670381
0.4185673 0.029864084 0.90659702
0.41792339 0.030304015 0.92223042
0.41468254 0.030567098 0.93240231
0.41566187 0.031155357 0.9526757
0.42181715 0.032158382 0.98590165
0.42333883 0.032836955 1.0090934
0.41818255 0.033012427 1.0166026
0.41811174 0.033602957 1.0370934
0.42757326 0.034995392 1.082779
0.42360416 0.035320155 1.0950201
0.42158863 0.035823327 1.1128752
-0.20369735 0.035366852 1.1372046
-0.2070417 0.034597624 1.1112111
-0.21060322 0.033919059 1.0881722
-0.21521877 0.033451721 1.0720018
-0.21540797 0.032351155 1.0352578
-0.22340344 0.032456562 1.0376748
-0.22394872 0.031507146 1.0058591
-0.22208388 0.030287236 0.96531266
-0.23286647 0.030813409 0.98129445
-0.22936687 0.029473918 0.93692458
-0.23682576 0.029578272 0.93921757
-0.23863935 0.028991105 0.91917783
0.42850855 0.023702946 0.92862725
0.42283082 0.023769995 0.93337291
0.42632613 0.024363482 0.95915037
0.41489699 0.024109701 0.95102805
0.42766261 0.025277272 0.99991757
0.43214357 0.02598734 1.0305448
0.42796737 0.026192756 1.0408943
0.42440984 0.026444143 1.0530928
0.43702775 0.027731176 1.1072143
0.43075451 0.027845258 1.1139165
0.42349616 0.028441893 1.1422403
-0.20976464 0.027175639 1.1261697
-0.2158629 0.026953537 1.1158738
-0.21270902 0.025632042 1.0594552
-0.21943648 0.025550291 1.055041
-0.22320969 0.025141124 1.0368934
-0.22888701 0.024965517 1.0285101
-0.22607136 0.023902709 0.98304701
-0.23128867 0.02372718 0.97466636
-0.23710488 0.023621453 0.96917731
-0.23828425 0.023072684 0.94521868
-0.24434189 0.023013338 0.94163269
-0.24350651 0.022325182 0.91190106
-0.25269803 0.022568142 0.92083418
0.43080607 0.016655723 0.91672534
0.42646074 0.016752077 0.92421412
0.42488387 0.016962092 0.93807888
0.43155351 0.017513737 0.97120214
0.43502948 0.01795217 0.99802786
0.42806914 0.01796758 1.0009872
0.43827048 0.018716417 1.0454829
0.42535785 0.018487228 1.0345608
0.43217862 0.019122915 1.0727621
0.43740934 0.01971034 1.1083083
0.44003719 0.02020029 1.1383694
-0.21774673 0.019307952 1.1258526
-0.21931775 0.018767994 1.0929534
-0.22185583 0.018344447 1.0669439
-0.22446461 0.01795421 1.0429085
-0.23253758 0.018011892 1.0452591
-0.23425063 0.017588513 1.0192682
-0.2360753 0.017198443 0.9952516
-0.23407264 0.016560124 0.95667803
-0.24022064 0.016518092 0.95311701
-0.23520204 0.015731482 0.90592158
-0.2465646 0.016053211 0.92363632
0.43252912 0.0097431336 0.90388215
0.42452592 0.0097137587 0.90320081
0.42977878 0.0099916225 0.93159014
0.43100074 0.010183304 0.95187229
0.43076432 0.010346306 0.96946543
0.43385863 0.010596147 0.99536926
0.43351483 0.010769142 1.0139872
0.43064737 0.010884381 1.0271009
0.42762268 0.010999666 1.0402225
0.44326335 0.011607911 1.1007469
0.4472149 0.011926795 1.1335759
0.44254407 0.012023367 1.1450198
-0.21831557 0.011456993 1.1289041
-0.21874215 0.011078423 1.0901126
-0.22005557 0.010768806 1.0582273
-0.22779077 0.010783407 1.0586573
-0.21926855 0.010051804 0.98479813
-0.23425767 0.010409828 1.0193636
-0.23903909 0.010306447 1.0080037
-0.23688862 0.0099187866 0.96843404
-0.24215348 0.0098546622 0.96097112
-0.25079072 0.0099275326 0.96704656
-0.24504831 0.0094424412 0.91792041
0.43466371 0.0030386348 0.90845025
0.43711671 0.0031040045 0.93047708
0.44052935 0.0031783939 0.95531106
0.43466958 0.003187218 0.96013886
0.44078821 0.0032856206 0.99241692
0.44175303 0.0033482746 1.0137953
0.43080407 0.0033212283 1.0075843
0.44287047 0.0034737659 1.0567257
0.43776551 0.0034946378 1.0652965
0.4403168 0.0035784862 1.0933638
0.43996692 0.0036414079 1.1149914
-0.22922653 0.0036028998 1.1431348
-0.23210581 0.0035250317 1.1170532
-0.23671505 0.0034776633 1.1007698
-0.23897199 0.0033998243 1.0747086
-0.23823538 0.003285473 1.036966
-0.24563843 0.0032868369 1.0362895
-0.24204193 0.0031451895 0.98986703
-0.24504559 0.0030948513 0.97266227
-0.24312706 0.0029867927 0.93705428
-0.2414967 0.0028879233 0.90442175
-0.24985468 0.0029105255 0.91047543
0.44748068 -0.0037649709 0.91896755
0.43423763 -0.0037103065 0.90754294
0.43837479 -0.0038047635 0.93319786
0.44135547 -0.0038920518 0.95712972
0.43833223 -0.0039283768 0.96835732
0.45000431 -0.0040997877 1.0134869
0.43978062 -0.0040741297 1.0091981
0.43856594 -0.0041324822 1.0260139
0.43905234 -0.004209178 1.0474807
0.43663889 -0.0042603007 1.0625135
0.45803246 -0.0045497506 1.1379718
0.448309 -0.0045350692 1.1364223
-0.21195202 -0.0043775616 1.1382837
-0.22150438 -0.0044092764 1.1456513
-0.22829074 -0.0042376253 1.0984375
-0.23360288 -0.0041946629 1.0860934
-0.2368305 -0.0041181706 1.0649381
-0.23492332 -0.0039598159 1.0223337
-0.24245408 -0.0039652316 1.0226541
-0.2495324 -0.0039631487 1.0209754
-0.24504541 -0.0037826542 0.97266006
-0.25252554 -0.0037917024 0.97387123
-0.25495535 -0.003726454 0.95568186
-0.25584677 -0.0036426811 0.93267864
0.43508253 -0.010476613 0.90930402
0.44214362 -0.010814649 0.94131732
0.44589454 -0.01108126 0.96709496
0.4428024 -0.011183728 0.9783529
0.43957901 -0.011286221 0.98961347
0.44450691 -0.011604975 1.0201712
0.44049972 -0.011697384 1.0305674
0.4516443 -0.012202378 1.077924
0.43850932 -0.012057675 1.0670916
0.44289327 -0.012398163 1.0998092
0.44757661 -0.012759712 1.1344992
-0.22301167 -0.012073663 1.1116852
-0.23350732 -0.012215231 1.1238515
-0.23193942 -0.011737091 1.0782133
-0.23939615 -0.011731426 1.0766053
-0.24154316 -0.011473885 1.05154
-0.24290501 -0.011195473 1.0245498
-0.2481239 -0.011105777 1.0150907
-0.25129986 -0.010932242 0.99784476
-0.25994125 -0.010999454 1.002888
-0.25977606 -0.010700343 0.97400939
-0.25558215 -0.01025507 0.93166578
-0.25696716 -0.01005047 0.91159016
0.44314146 -0.017286409 0.90980417
0.4380495 -0.017353239 0.91554171
0.44380838 -0.017858814 0.94484949
0.44546804 -0.018213006 0.96608388
0.4411613 -0.018330831 0.97459829
0.44677851 -0.01887174 1.0059999
0.44173282 -0.018972889 1.0136346
0.44902468 -0.019616494 1.0507337
0.44972199 -0.019989418 1.073193
0.47040731 -0.021279767 1.1457516
0.44841599 -0.0206513 1.1136357
-0.23711377 -0.020406384 1.141372
-0.23691092 -0.019723272 1.1015817
-0.24045917 -0.01938577 1.0813828
-0.24286021 -0.0189793 1.0572876
-0.24972031 -0.018935112 1.0536581
-0.24835017 -0.018287439 1.0159626
-0.25105125 -0.017967494 0.99677545
-0.25325552 -0.017630428 0.9766317
-0.26002181 -0.017620429 0.97487986
-0.26417148 -0.01743822 0.96342862
-0.26043159 -0.016757548 0.92402512
0.43760449 -0.024133878 0.91449457
0.44882229 -0.025143143 0.95559245
0.44172937 -0.02514255 0.95774132
0.44643226 -0.025824282 0.98631877
0.44275188 -0.026035629 0.99668604
0.44131881 -0.026388466 1.0125602
0.44590005 -0.027119186 1.0432022
0.44206694 -0.027354702 1.0545498
0.45424378 -0.028606834 1.1057352
0.45061016 -0.028890515 1.1190411
-0.23007578 -0.027565643 1.1069285
-0.23772945 -0.027552744 1.1053325
-0.2432313 -0.027299149 1.0939193
-0.24108261 -0.026228756 1.0493324
-0.24402303 -0.025759226 1.029166
-0.24552977 -0.025169844 1.0041503
-0.24911402 -0.02482054 0.98886651
-0.26437256 -0.025621722 1.0200765
-0.25975579 -0.024505291 0.97376901
-0.26207513 -0.024084076 0.9555648
-0.26041949 -0.023328044 0.92388827
0.44352782 -0.030871244 0.91037482
0.44353804 -0.031351559 0.92696673
0.4357934 -0.031290226 0.92726958
0.44996724 -0.032825921 0.97574723
0.44599903 -0.033066601 0.98520344
0.4443284 -0.033488419 1.000145
0.44326463 -0.033970956 1.0169461
0.44897819 -0.034998327 1.0503591
0.46150887 -0.03660218 1.1014487
0.46285069 -0.037359811 1.1268182
-0.23708762 -0.036407344 1.1409844
-0.24082597 -0.035774052 1.1197845
-0.24343012 -0.035017643 1.0946831
-0.24526195 -0.034199905 1.0676503
-0.24923818 -0.033720929 1.0513518
-0.25019541 -0.032872949 1.023389
-0.25319004 -0.032332748 1.0051652
-0.25545365 -0.031731229 0.98501271
-0.25821641 -0.031222049 0.96777785
-0.26101699 -0.030743681 0.95151728
-0.26147184 -0.030020138 0.92755944
-0.26708567 -0.029909942 0.92286795
-0.27012658 -0.029523831 0.90950865
0.45126852 -0.038313322 0.92636108
0.44733632 -0.038569491 0.93486506
0.45798999 -0.040111192 0.97510505
0.44538951 -0.039633051 0.96548802
0.44759399 -0.040478218 0.9886027
0.44429582 -0.04084551 0.99989003
0.44875267 -0.041950129 1.0295427
0.45321336 -0.043092955 1.0602229
0.45651272 -0.044163283 1.089164
0.46206585 -0.045493472 1.1246817
-0.24148437 -0.042372409 1.0856329
-0.2507613 -0.042651739 1.0917565
-0.25058308 -0.041354071 1.0569347
-0.2525163 -0.040469721 1.032855
-0.26087141 -0.040635351 1.0359565
-0.2630994 -0.039863575 1.0147871
-0.25895813 -0.038193427 0.97044075
-0.26203886 -0.03764734 0.95514333
-0.26171887 -0.036652554 0.92829484
-0.26679161 -0.036443383 0.92168009
-0.26954561 -0.035935123 0.90736645
0.46763739 -0.046856761 0.96030939
0.46049049 -0.046857458 0.96259642
0.45207867 -0.04672743 0.9621098
0.45278665 -0.047550976 0.98156482
0.44674093 -0.047680546 0.98647493
0.46068096 -0.049982805 1.0371087
0.44989607 -0.049634848 1.0319828
0.45511338 -0.051070657 1.064504
0.45876244 -0.052377477 1.0943737
0.4616496 -0.053642128 1.1234159
-0.24659155 -0.052731827 1.1465522
-0.24981019 -0.051731199 1.1233746
-0.25095862 -0.050376344 1.0924135
-0.25283346 -0.049243551 1.0663552
-0.25576892 -0.048376769 1.0461513
-0.25844094 -0.047510229 1.0259583
-0.25293782 -0.045229156 0.974805
-0.26401138 -0.045954715 0.98948115
-0.25967067 -0.044029102 0.94618285
-0.26676852 -0.044091217 0.94631284
-0.26977688 -0.043491013 0.93197793
-0.27176234 -0.042758696 0.91477036
0.45545912 -0.051811334 0.91812688
0.44902423 -0.051860712 0.9212364
0.44342157 -0.052009236 0.92610753
0.45329055 -0.054005764 0.96448374
0.44984886 -0.054455034 0.97484839
0.45605215 -0.056105517 1.0071015
0.46023324 -0.057557773 1.0358248
0.45615807 -0.058009014 1.0462985
0.45894611 -0.059363458 1.0733302
0.45795193 -0.060267366 1.0921414
0.45409635 -0.060820106 1.1045096
0.45489088 -0.06202687 1.1289408
-0.2523514 -0.060235672 1.1347004
-0.25335902 -0.058622796 1.1027576
-0.25394279 -0.057010688 1.070856
-0.26112279 -0.056929778 1.0681264
-0.26009727 -0.055114672 1.0323943
-0.25958565 -0.053504575 1.0005983
-0.26550597 -0.053270563 0.99493891
-0.26537216 -0.051865414 0.96707064
-0.26887608 -0.051224213 0.95368767
-0.27084243 -0.050328862 0.93550026
-0.26753134 -0.048519406 0.90007681
-0.27435732 -0.048590168 0.90014148
0.4483999 -0.057764366 0.90339094
0.45846942 -0.059965041 0.94066167
0.43783838 -0.058156282 0.91398495
0.45365697 -0.061208282 0.96499431
0.45103541 -0.061830275 0.97717649
0.45152435 -0.062905893 0.9966616
0.45096785 -0.063869089 1.0143692
0.46556574 -0.067047134 1.0678886
0.46781412 -0.068525136 1.0940549
0.46476662 -0.06926541 1.1083074
0.4562943 -0.069209121 1.1096162
-0.24674127 -0.068874925 1.1466993
-0.24910988 -0.067337669 1.1196356
-0.25619626 -0.067130834 1.1149882
-0.25572985 -0.065016091 1.0782179
-0.25804919 -0.063711286 1.0550954
-0.26078695 -0.062580116 1.0348998
-0.26054248 -0.060814615 1.0040778
-0.26293546 -0.059742216 0.984896
-0.26638132 -0.058958355 0.97054821
-0.26884326 -0.05800179 0.9533146
-0.27108297 -0.057045557 0.93609399
-0.28010356 -0.057527896 0.94284457
-0.28349683 -0.056859002 0.93038934
0.4527196 -0.065141991 0.91193897
0.44934481 -0.065645471 0.92132878
0.45096979 -0.06690637 0.94154805
0.45150137 -0.068042286 0.96002084
0.45964894 -0.070380777 0.99580652
0.45309195 -0.070507251 0.99984998
0.46812791 -0.07405372 1.0532126
0.46629277 -0.075005859 1.0692354
0.46154678 -0.075514354 1.0788449
0.46775746 -0.077864483 1.115182
-0.25442463 -0.076818079 1.1435168
-0.24821758 -0.072647236 1.0794677
-0.25614887 -0.072739311 1.0796916
-0.2605865 -0.071862601 1.0653063
-0.26411849 -0.070792392 1.0480068
-0.26025936 -0.067853615 1.0026716
-0.26594442 -0.067493238 0.99604565
-0.26452219 -0.065394461 0.96337873
-0.26853946 -0.064712413 0.95193392
-0.27432799 -0.064480275 0.94719827
-0.27922514 -0.064054795 0.93955517
-0.27887249 -0.062473219 0.914684
-0.28200483 -0.061726954 0.90226394
0.45547879 -0.071327038 0.90118474
0.45489013 -0.073414296 0.93254578
0.44877732 -0.073552929 0.93655264
0.46023801 -0.076621629 0.97853869
0.44925895 -0.075993001 0.97259581
0.47051251 -0.080884933 1.0385091
0.47006154 -0.082145944 1.0572462
0.45991895 -0.081727244 1.0540316
0.47117415 -0.085161701 1.1012769
0.46158528 -0.084882803 1.0998729
0.46554548 -0.087129794 1.1316644
0.4609794 -0.08783339 1.1431694
-0.2470829 -0.085103683 1.1476009
-0.25224572 -0.0841351 1.1332228
-0.2554591 -0.082595609 1.1110468
-0.25815457 -0.080985188 1.0879102
-0.26054639 -0.079375267 1.0647904
-0.26022983 -0.07705377 1.0320097
-0.26293781 -0.075730138 1.0128143
-0.26514259 -0.074335791 0.99266678
-0.26291999 -0.071804486 0.95713145
-0.26796478 -0.071335606 0.94954664
-0.27428642 -0.071221337 0.94673491
-0.27862278 -0.07060945 0.93717998
-0.27739754 -0.068649903 0.90945774
0.44864228 -0.078074731 0.90288621
0.45179686 -0.079826452 0.92572504
0.44785494 -0.080359265 0.93421954
0.45932624 -0.083718158 0.97617799
0.46363688 -0.085858703 1.0038143
0.47084367 -0.088614084 1.0388379
0.46958575 -0.089841269 1.0557426
0.47324246 -0.092065886 1.0845847
0.46140498 -0.091300823 1.077701
0.46456224 -0.093527906 1.1066331
0.4662205 -0.095526852 1.1328866
-0.253914 -0.09271919 1.1404113
-0.25740078 -0.091111861 1.1192065
-0.25515705 -0.087632038 1.0747122
-0.2583977 -0.086182341 1.0555005
-0.2654762 -0.086058125 1.0527444
-0.27005884 -0.085153729 1.0402826
-0.26966432 -0.082769722 1.0094899
-0.2657389 -0.079453424 0.96720421
-0.27539188 -0.080261856 0.97593307
-0.27260014 -0.077492818 0.94047296
-0.27941638 -0.077522472 0.93954539
-0.28107628 -0.076153703 0.92138058
-0.28250173 -0.074785613 0.903238
0.45250282 -0.085564449 0.91038406
0.44956094 -0.086308576 0.92066079
0.45500597 -0.088710994 0.94896507
0.45715097 -0.090535693 0.97105688
0.46066651 -0.092694663 0.99685007
0.47157443 -0.096435741 1.0400229
0.47350621 -0.098434731 1.0642256
0.46921983 -0.099186637 1.0747724
0.46907741 -0.10085528 1.0954081
0.47058219 -0.10294244 1.1206946
0.46426338 -0.10336185 1.1275872
-0.25757369 -0.099066846 1.1195297
-0.25283825 -0.094353892 1.0643866
-0.25531062 -0.092525266 1.0422953
-0.25196365 -0.088749513 0.99798137
-0.26062199 -0.089293122 1.0029947
-0.26302046 -0.087720118 0.98384696
-0.26621085 -0.086485825 0.96856189
-0.27053925 -0.085674204 0.95808053
-0.27583107 -0.085200131 0.95141912
-0.28216496 -0.085062981 0.94855595
-0.27873367 -0.082057446 0.91320276
-0.28362274 -0.081583008 0.90651453
0.45745951 -0.09200798 0.90396196
0.45591778 -0.093079522 0.91693002
0.45378974 -0.094062306 0.92902106
0.45279428 -0.095314026 0.94382763
0.45203733 -0.096656263 0.95956713
0.46388102 -0.10077903 1.0034394
0.46579486 -0.10284376 1.0266049
0.46341196 -0.10401248 1.0407225
0.46834305 -0.10688983 1.0722352
0.46433714 -0.10779116 1.0836796
0.46629873 -0.11013333 1.10984
0.46979907 -0.1129285 1.1406904
-0.25664011 -0.10657293 1.1149423
-0.25892001 -0.10432255 1.089895
-0.26297364 -0.10289616 1.0735822
-0.25744218 -0.097904645 1.0195779
-0.26476899 -0.097942159 1.0187608
-0.26499701 -0.095421501 0.99092811
-0.26641843 -0.093449935 0.96890908
-0.27155298 -0.092847437 0.96131003
-0.27413693 -0.091423981 0.94506842
-0.27679205 -0.090092093 0.92979342
-0.2786791 -0.08857853 0.91261971
-0.28532499 -0.088612311 0.91164559
0.46224645 -0.09983208 0.91310734
0.46282443 -0.10146298 0.93057185
0.45887282 -0.10213555 0.93911558
0.46715468 -0.10559426 0.9737497
0.459066 -0.10540338 0.97422856
0.47492746 -0.11079358 1.0271784
0.46691906 -0.11070025 1.0285984
0.46291736 -0.11156947 1.0390708
0.47376084 -0.11610615 1.0842723
0.46811739 -0.11668853 1.0920808
0.47497082 -0.12046063 1.1302037
-0.25438046 -0.11343049 1.1044838
-0.25046259 -0.10836253 1.0533072
-0.25380278 -0.10663678 1.0351279
-0.26700002 -0.10903316 1.0575136
-0.26446554 -0.10504981 1.0171034
-0.26722237 -0.10332413 0.99891371
-0.26974335 -0.10159894 0.98073524
-0.27282882 -0.10016807 0.96544647
-0.27571842 -0.098737508 0.95016265
-0.27673364 -0.096720524 0.92915517
-0.28148389 -0.096073009 0.92152357
-0.28467929 -0.094936624 0.90911543
0.46569413 -0.10748917 0.91951984
0.4662227 -0.10923256 0.93699735
0.45575479 -0.10841347 0.93211412
0.46365324 -0.11200575 0.9658041
0.44891569 -0.11015686 0.95182502
0.46616077 -0.11622257 1.0073837
0.46681726 -0.11828272 1.0278122
0.47081655 -0.12127213 1.0564926
0.47050747 -0.12323382 1.0761408
0.47808811 -0.12736461 1.1150715
0.46800664 -0.1268521 1.112812
0.47334746 -0.13057576 1.1482413
-0.24837147 -0.11836278 1.0775001
-0.25426432 -0.11756799 1.0690017
-0.26168862 -0.11750676 1.0672408
-0.2674194 -0.11670988 1.0586739
-0.26860204 -0.11402574 1.0327388
-0.26969621 -0.11144771 1.0078006
-0.26968196 -0.10855699 0.98001748
-0.27463335 -0.10776053 0.97144562
-0.28084671 -0.10748629 0.9676339
-0.27862939 -0.1040761 0.93515241
-0.28371078 -0.10348824 0.92846406
-0.28315118 -0.10091685 0.90369201
0.46174201 -0.11513986 0.92729461
0.46082202 -0.11666828 0.9420929
0.4584471 -0.11787014 0.95422572
0.46932614 -0.12257138 0.99521881
0.47966278 -0.12727946 1.0364044
0.47320768 -0.12761264 1.0414889
0.47830549 -0.13112402 1.0729227
0.47354689 -0.13200609 1.0825692
0.47487786 -0.13464503 1.1068468
0.47285062 -0.13640717 1.1238482
0.47323677 -0.13894039 1.1473173
-0.25599048 -0.13394383 1.14724
-0.26153016 -0.13264865 1.1348065
-0.2555638 -0.12576813 1.0739784
-0.25975585 -0.12413977 1.0586857
-0.25990757 -0.12072612 1.0279585
-0.26804298 -0.12110599 1.03001
-0.27292502 -0.12003484 1.0195071
-0.2753365 -0.11796068 1.0003539
-0.27456695 -0.11466274 0.97068596
-0.27722833 -0.11292469 0.95445442
-0.2824778 -0.11229903 0.94776928
-0.28278396 -0.10978362 0.92487901
-0.28396156 -0.10771407 0.90582937
0.45769396 -0.12102653 0.91845107
0.46501821 -0.12484429 0.95021528
0.46682966 -0.12727764 0.97134805
0.47632599 -0.13191609 1.0096637
0.46305108 -0.13029577 0.99935895
0.47512126 -0.13587061 1.0451182
0.47898677 -0.13924497 1.0738136
0.47618446 -0.14076199 1.0880194
0.47321123 -0.14227955 1.1022366
0.47882822 -0.14647788 1.1375599
-0.25250557 -0.1401035 1.1307832
-0.25859848 -0.13908687 1.1212871
-0.25799331 -0.13463525 1.0837277
-0.2629579 -0.13326342 1.0713245
-0.26392281 -0.12999849 1.0434891
-0.27093476 -0.12980907 1.0407003
-0.26778769 -0.12489174 0.99946004
-0.27396604 -0.12446559 0.99473208
-0.27156496 -0.12026156 0.95935673
-0.28398386 -0.12266596 0.97752815
-0.28240564 -0.11905406 0.94697893
-0.28442875 -0.1170942 0.92981178
0.46091825 -0.12691161 0.90820581
0.45932284 -0.12837788 0.92115897
0.4558489 -0.12935595 0.93055606
0.45651582 -0.1315577 0.94891888
0.46322954 -0.13559899 0.98083305
0.4687013 -0.1394005 1.0110772
0.47377911 -0.14320683 1.0414417
0.46167368 -0.14185932 1.0337703
0.47487947 -0.14837486 1.0842924
0.46766713 -0.14862475 1.0884396
0.47032425 -0.15207453 1.1163657
0.4651303 -0.15306313 1.125998
-0.25670713 -0.15055068 1.1491771
-0.25940797 -0.14747226 1.1241803
-0.26472768 -0.14602141 1.1117584
-0.26592082 -0.1424439 1.0829245
-0.26385054 -0.13736819 1.0425762
-0.27135414 -0.13741796 1.0417109
-0.27050075 -0.13334548 1.0091351
-0.27493095 -0.13202098 0.99768811
-0.28268126 -0.13231739 0.99865347
-0.28445289 -0.12986962 0.97857416
-0.27897489 -0.12430906 0.93471795
-0.28492418 -0.1239818 0.93088889
-0.28498331 -0.12116527 0.90806061
0.45857614 -0.13307355 0.90287244
0.45482731 -0.13397433 0.91134924
0.46735349 -0.13976997 0.95375955
0.45766374 -0.13899842 0.95067823
0.46226525 -0.14261144 0.97807765
0.46403882 -0.14545391 1.0001723
0.46268997 -0.14739434 1.0160034
0.47033754 -0.15231241 1.052735
0.47081494 -0.15503508 1.074144
0.48185807 -0.16138989 1.1211699
0.47095534 -0.1604877 1.1171253
-0.25172177 -0.15558527 1.1258582
-0.25889233 -0.15511329 1.1212137
-0.26260993 -0.15266208 1.1020499
-0.26304308 -0.14849822 1.070365
-0.26545444 -0.14565355 1.0483457
-0.26930302 -0.14373125 1.033066
-0.27219546 -0.14141436 1.0149089
-0.2787489 -0.1410702 1.0111122
-0.27647427 -0.13638842 0.97576308
-0.2791864 -0.13433659 0.95955527
-0.28001323 -0.13149795 0.93765032
-0.28112534 -0.12892334 0.91767889
-0.28607246 -0.12818515 0.91099906
0.44989094 -0.1392988 0.90062076
0.46807933 -0.14714749 0.9545579
0.45965332 -0.14674346 0.95417416
0.46296775 -0.15013395 0.97886848
0.4536044 -0.14945601 0.97662163
0.45809242 -0.15339416 1.0050228
0.47020096 -0.16005683 1.0516622
0.46163404 -0.15978746 1.0521382
0.47320548 -0.16659884 1.09997
0.46510896 -0.1666026 1.1022766
0.46673706 -0.17015164 1.1283717
0.46287772 -0.17179227 1.1416634
-0.25271192 -0.16418689 1.1296046
-0.25463179 -0.16036423 1.1017816
-0.25414163 -0.15529621 1.0653108
-0.26366305 -0.15646194 1.0722127
-0.26129493 -0.1507048 1.030991
-0.26922145 -0.15103744 1.0320594
-0.27261943 -0.14887939 1.0158335
-0.2737304 -0.14561638 0.99196464
-0.27532595 -0.14276935 0.97099167
-0.28210369 -0.14268355 0.96908724
-0.28579611 -0.14107883 0.95668346
-0.27732459 -0.13368572 0.90444744
-0.28510991 -0.13428855 0.90726137
0.4646005 -0.15085344 0.92984372
0.45760545 -0.15085512 0.93212789
0.45993787 -0.15397954 0.95403463
0.45864591 -0.15597005 0.96883893
0.47364789 -0.16365421 1.0196724
0.46647099 -0.16380076 1.0229033
0.46366769 -0.16551335 1.0360459
0.45913461 -0.16665576 1.0455642
0.47538179 -0.17550935 1.1042649
0.47295716 -0.17765781 1.1202928
0.46472329 -0.17766167 1.122595
-0.24765408 -0.17423922 1.1436996
-0.2479367 -0.16892308 1.1072025
-0.25411019 -0.16782337 1.0987312
-0.25519359 -0.16352732 1.0690404
-0.26241264 -0.16329755 1.0663108
-0.26600903 -0.1608896 1.049135
-0.26839662 -0.15790194 1.0281283
-0.27202699 -0.15578483 1.0128788
-0.27494201 -0.15337825 0.99571973
-0.27550527 -0.14981429 0.97094554
-0.28310585 -0.15015833 0.97189313
-0.2817964 -0.1458735 0.94240624
-0.28238225 -0.14274783 0.92056334
-0.28677461 -0.14164554 0.91199303
0.46314299 -0.15735839 0.92611891
0.45918113 -0.1583989 0.93462723
0.46488133 -0.16285655 0.96367061
0.46602309 -0.16583277 0.98387325
0.45990956 -0.16628125 0.98885232
0.45699582 -0.16792011 1.0010086
0.4583295 -0.1711998 1.0231223
0.46173874 -0.17537829 1.0507448
0.45705578 -0.17657374 1.0602605
0.46253562 -0.18180548 1.0944034
0.46457437 -0.18584625 1.1213479
-0.25798389 -0.17828804 1.1149038
-0.25895983 -0.17364097 1.0842534
-0.2658228 -0.17309576 1.0795776
-0.26352265 -0.16678186 1.038422
-0.27003205 -0.16623597 1.0337254
-0.27218971 -0.16311136 1.0127455
-0.27537009 -0.16074547 0.99655515
-0.28153464 -0.16019702 0.99179381
-0.28028604 -0.15556121 0.9613418
-0.28226209 -0.15289482 0.94328254
-0.28343245 -0.14992736 0.9233501
-0.28784966 -0.14877404 0.91477948
0.46066079 -0.16102956 0.90413356
0.46255255 -0.16412707 0.92412519
0.45859805 -0.16521318 0.93262351
0.46006233 -0.1683155 0.95271027
0.47171733 -0.17530289 0.99523979
0.45769832 -0.17282021 0.9831937
0.46373457 -0.1779526 1.015143
0.46456236 -0.1812232 1.0363775
0.46787 -0.18558766 1.0640147
0.46540722 -0.18777353 1.0790192
0.47454885 -0.19479914 1.1222998
0.46890593 -0.19589737 1.1310151
-0.24769041 -0.19043784 1.1421767
-0.25877315 -0.18676397 1.1175098
-0.25818995 -0.18080212 1.0801585
-0.2633993 -0.17912371 1.0687751
-0.26367074 -0.1742758 1.0382154
-0.27092358 -0.17418104 1.0363896
-0.27614152 -0.17281784 1.0268781
-0.27605331 -0.16829038 0.99829072
-0.2758514 -0.16392384 0.97070545
-0.27610123 -0.16003409 0.94601882
-0.28049067 -0.15867299 0.93653125
-0.28733405 -0.15873137 0.93553615
0.45977452 -0.17006883 0.91765946
0.45628846 -0.17136122 0.92702085
0.45863092 -0.17491674 0.94885403
0.45275807 -0.17540182 0.95377511
0.46371105 -0.1825254 0.99543411
0.46235764 -0.18495815 1.0111947
0.46200684 -0.18787925 1.0296909
0.4645654 -0.19210176 1.0554709
0.46254003 -0.19454101 1.0713471
0.45651782 -0.19535497 1.0781395
0.46687308 -0.20333043 1.1250768
0.45608976 -0.20594087 1.1442291
-0.2570546 -0.19951603 1.1458719
-0.25670084 -0.1931354 1.1075547
-0.26285052 -0.19188172 1.0990559
-0.26004148 -0.1843494 1.054109
-0.26501298 -0.18260089 1.0427402
-0.27230293 -0.18250173 1.040905
-0.27199739 -0.17745252 1.0104187
-0.27802882 -0.17669193 1.0047294
-0.28319788 -0.17543553 0.99615628
-0.28308621 -0.17105019 0.96954924
-0.28094828 -0.16568056 0.93731558
-0.2823776 -0.16261722 0.91837698
0.45786408 -0.17626078 0.91292799
0.45698321 -0.17861286 0.92759132
