# .PCD v0.7 - Point Cloud Data file format
VERSION 0.7
FIELDS x y z
SIZE 4 4 4
TYPE F F F
COUNT 1 1 1
WIDTH 1440
HEIGHT 1
VIEWPOINT 0 0 0 1 0 0 0
POINTS 1440
DATA ascii
0.50983769 -0.54526794 2.2876394
0.50727546 -0.5603916 2.3539464
0.4882265 -0.55771196 2.3449533
0.48115227 -0.56900454 2.3950469
0.46825224 -0.57398117 2.4183669
0.45487475 -0.57872766 2.4406657
0.4429183 -0.58572763 2.4724874
0.43037808 -0.59249842 2.5033
0.41176525 -0.59113067 2.4994502
0.39940685 -0.59902102 2.5349233
0.38888034 -0.61052579 2.5857594
0.36819106 -0.60642177 2.5700305
0.352965 -0.6113565 2.5927529
0.33211264 -0.60655308 2.5738459
0.3057974 -0.5906449 2.5073979
0.29224429 -0.59894902 2.5442638
0.26927012 -0.58776921 2.4977744
0.24753866 -0.57793468 2.4569101
0.22349849 -0.56083578 2.3848367
0.21258883 -0.57658494 2.4532619
0.18929271 -0.55855501 2.3769796
0.17155184 -0.55502057 2.3626719
0.1513591 -0.54195285 2.3074169
0.13199896 -0.5290997 2.2529736
0.11275477 -0.51328653 2.1857343
0.095441662 -0.50267929 2.1407216
0.078214653 -0.48865941 2.0809805
0.057625774 -0.44241282 1.8828754
0.043963149 -0.43767446 1.862777
0.031207593 -0.44177809 1.8805609
0.017150855 -0.42000759 1.787237
0.0045619942 -0.41365969 1.7600418
-0.0077378112 -0.41207051 1.7532135
-0.020626066 -0.42454323 1.8066809
-0.03352803 -0.42770585 1.8201294
-0.044874839 -0.4147526 1.7643613
-0.058016144 -0.42039797 1.7883483
-0.068866059 -0.41038316 1.7450898
-0.081224866 -0.41102493 1.7474966
-0.088720225 -0.39011335 1.6574241
-0.094968714 -0.36920065 1.5673368
-0.10634884 -0.37050933 1.5724818
-0.11435711 -0.3609297 1.5309236
-0.13137981 -0.37900206 1.60777
-0.12942578 -0.34380338 1.4564481
-0.13559483 -0.33376431 1.4128662
-0.14314073 -0.32825518 1.3886513
-0.15183429 -0.32591438 1.3779581
-0.15960078 -0.3219848 1.3604406
-0.16713147 -0.31805229 1.3428837
-0.16701189 -0.30076492 1.268301
-0.17274834 -0.2952475 1.2439697
-0.1820493 -0.29606181 1.2466166
-0.18206637 -0.28240073 1.1875558
-0.18523619 -0.2746211 1.153572
-0.19462702 -0.27633256 1.1599679
-0.19582529 -0.26674542 1.1182932
-0.20266379 -0.26528955 1.1111761
-0.2043974 -0.25751162 1.0772071
-0.20734151 -0.25176653 1.0518764
-0.21129115 -0.24760109 1.0332438
-0.21260358 -0.24073073 1.0031638
-0.22482198 -0.24625462 1.0254951
0.50115311 -0.27323407 1.0458322
0.50639367 -0.28051791 1.076649
0.50961423 -0.28690192 1.1040416
0.50572377 -0.28942785 1.1164143
0.50755274 -0.29536712 1.1421632
0.51097137 -0.30245093 1.1724619
0.49506766 -0.2981452 1.158006
0.49279362 -0.30204049 1.1757767
0.49651733 -0.30981898 1.2089087
0.51059043 -0.32446018 1.2692879
0.52631688 -0.34072044 1.3362657
0.51858562 -0.34212589 1.3443955
0.54447943 -0.3662014 1.442763
0.52759224 -0.36188826 1.4281802
0.52535862 -0.36765531 1.4537621
0.5109064 -0.36493313 1.445387
0.50730586 -0.37001097 1.4681948
0.52500635 -0.391179 1.555635
0.52701515 -0.40133068 1.5989771
0.5225352 -0.40688738 1.6238754
0.52669686 -0.41958445 1.6775925
0.50413781 -0.41109186 1.6457758
0.58834481 -0.49135399 1.9729617
0.57096404 -0.48865023 1.9647881
0.54241693 -0.47600979 1.9161907
0.47199541 -0.42500499 1.711502
0.46920064 -0.43379402 1.7494802
0.48245311 -0.4583106 1.8515533
0.45854232 -0.44791177 1.8114032
0.46400049 -0.46643054 1.8891658
0.49524084 -0.51275313 2.0806956
0.51536936 -0.55007762 2.2357521
0.49989617 -0.55057102 2.240171
0.49600825 -0.56427675 2.2986996
0.47594559 -0.55988836 2.2829843
0.47042289 -0.57289779 2.3386424
0.46120584 -0.58219445 2.3790495
0.45481893 -0.59590429 2.4376111
0.43347535 -0.59032613 2.4167216
0.42228514 -0.59868497 2.4531779
0.41454232 -0.61285567 2.5135894
0.39664003 -0.61260229 2.5144386
0.39213455 -0.63398457 2.6046135
0.37280497 -0.63232261 2.5995264
0.34755981 -0.61993766 2.5499704
0.32921565 -0.61918354 2.548424
0.29966417 -0.59605044 2.4540713
0.28623959 -0.60412818 2.4889083
0.26715967 -0.60054439 2.4753325
0.24304549 -0.5843578 2.4093664
0.21200989 -0.54786402 2.2589567
0.20755026 -0.57969773 2.3921087
0.18589227 -0.56487048 2.3314292
0.16438806 -0.54769599 2.2608724
0.14798857 -0.5456782 2.2532072
0.12915903 -0.53314739 2.2017441
0.11593275 -0.54348385 2.2453012
0.090656571 -0.49170861 2.030386
0.073818609 -0.47494087 1.960995
0.055764351 -0.44088274 1.8195542
0.041730586 -0.42783117 1.7654545
0.029316885 -0.42738295 1.7637527
0.016965911 -0.42786235 1.7658553
0.0045095803 -0.42109504 1.7377307
-0.0077763423 -0.42646587 1.7600837
-0.020538129 -0.43533334 1.7969353
-0.032710478 -0.42971399 1.7734195
-0.042594042 -0.40540636 1.6720617
-0.054324497 -0.40538067 1.6717312
-0.067878775 -0.41655648 1.7179576
-0.077374145 -0.4032093 1.6620877
-0.088519156 -0.40083072 1.6518098
-0.097542755 -0.3905102 1.6084584
-0.10317084 -0.37015092 1.5233462
-0.11537433 -0.37499383 1.5429699
-0.12369336 -0.36746407 1.5111306
-0.12978472 -0.35503271 1.4589107
-0.13570826 -0.34400004 1.4124908
-0.14513971 -0.34275997 1.4066935
-0.15217721 -0.33638668 1.3795677
-0.15951788 -0.33140978 1.3582103
-0.166807 -0.32689634 1.3387502
-0.16918623 -0.31376198 1.2835759
-0.17001285 -0.29923308 1.2226549
-0.1766731 -0.29588252 1.207989
-0.18197243 -0.29066798 1.1855991
-0.18575029 -0.28359145 1.1555115
-0.19245911 -0.28139919 1.1455796
-0.19705048 -0.27641475 1.1241118
-0.20187023 -0.27212709 1.1055087
-0.20805266 -0.26992944 1.0954987
-0.21187781 -0.26494318 1.0740006
-0.21618389 -0.2608856 1.0563178
-0.21806619 -0.25427565 1.028155
-0.2267634 -0.25578442 1.0332953
-0.22790405 -0.24894361 1.0041896
0.50162357 -0.27279666 1.0080938
0.49736631 -0.27468345 1.0176618
0.50588769 -0.28379846 1.0544715
0.49917597 -0.2845231 1.0596956
0.49564445 -0.28711364 1.071956
0.49435002 -0.29110724 1.0895432
0.50182426 -0.300486 1.1276383
0.48917654 -0.29793093 1.1203496
0.48119813 -0.29818019 1.1236877
0.48287162 -0.30452526 1.1503201
0.50028849 -0.32120746 1.2166557
0.48768991 -0.31887764 1.2101302
0.50980926 -0.33958635 1.292236
0.50792098 -0.34478891 1.3147736
0.51901752 -0.35917997 1.3728491
0.51162755 -0.3610951 1.3827671
0.53688341 -0.38659519 1.4841403
0.54500997 -0.40056038 1.5409819
0.51176792 -0.38406909 1.4794112
0.51610535 -0.39567706 1.5271144
0.51497281 -0.40351084 1.5601691
0.52108568 -0.41750282 1.6173451
0.51082438 -0.41871819 1.6245871
0.51630616 -0.4332 1.6838201
0.52705783 -0.45291051 1.7636957
0.53672063 -0.47263855 1.8437954
0.50191045 -0.45321101 1.7698076
0.46021405 -0.42639074 1.6663905
0.44697136 -0.42520291 1.6638676
0.44181663 -0.43185541 1.6922753
0.43605179 -0.43827093 1.7197487
0.43314874 -0.44801977 1.7604334
0.42679411 -0.45467579 1.788872
0.45868671 -0.50374776 1.9858097
0.4929029 -0.55858147 2.2060144
0.49289596 -0.57696587 2.2814949
0.47372475 -0.57340539 2.2695949
0.45855489 -0.57460791 2.2765868
0.45287296 -0.58822197 2.3330612
0.4411104 -0.59467107 2.3609226
0.43887556 -0.61497939 2.4441769
0.42173427 -0.61520946 2.4471164
0.40693292 -0.61901867 2.4643109
0.39221424 -0.62329984 2.4833379
0.37710702 -0.62733531 2.5013201
0.36300376 -0.63351911 2.5278654
0.34215528 -0.62796181 2.5071936
0.32272702 -0.62454796 2.4950254
0.29329899 -0.6002751 2.3988638
0.28266537 -0.61385179 2.4548242
0.24110308 -0.55765879 2.2298534
0.22517672 -0.55706555 2.2285478
0.21171607 -0.56293988 2.2532303
0.20034364 -0.57576525 2.3058836
0.17834868 -0.5576337 2.2336469
0.16079968 -0.5512467 2.2086682
0.14057066 -0.53332835 2.1370602
0.12716803 -0.54012221 2.1651037
0.10467164 -0.50489509 2.023407
0.08221823 -0.45884734 1.8378727
0.069825187 -0.46225044 1.8519709
0.053845055 -0.43803 1.7544041
0.042436656 -0.44766244 1.793548
0.029285096 -0.43927613 1.7598238
0.016642077 -0.43184316 1.7298903
0.0045621484 -0.43833381 1.7561718
-0.0077295946 -0.43617138 1.7474247
-0.01998747 -0.43592364 1.7463595
-0.031946622 -0.43182641 1.7296813
-0.045440264 -0.44501445 1.7827952
-0.054826971 -0.42097193 1.6854191
-0.06605497 -0.41709682 1.6694845
-0.077108659 -0.41345611 1.6544478
-0.086204425 -0.40164727 1.606382
-0.09556739 -0.39367577 1.5737779
-0.10331053 -0.38138014 1.5236896
-0.11394911 -0.38108116 1.5219799
-0.12174325 -0.37213877 1.485364
-0.12639138 -0.3557573 1.4187378
-0.13379653 -0.34897047 1.3907803
-0.14022677 -0.3407425 1.3569964
-0.14650963 -0.33323219 1.3260884
-0.15539655 -0.33219177 1.3211988
-0.15958837 -0.32180193 1.2786727
-0.16482799 -0.31452692 1.2486701
-0.16582318 -0.30030647 1.1907651
-0.17519006 -0.30189085 1.1963307
-0.18333212 -0.3013157 1.1931854
-0.18428123 -0.2894918 1.1449167
-0.19124456 -0.28771672 1.1369252
-0.1967808 -0.28402597 1.12124
-0.2000408 -0.27746591 1.094067
-0.20883791 -0.27879044 1.0984005
-0.20953926 -0.26960272 1.0607266
-0.21664715 -0.26901177 1.0573654
-0.21815076 -0.26173678 1.0273429
-0.22089127 -0.25637239 1.0049455
0.50811708 -0.29306743 1.0577531
0.49891609 -0.29237425 1.0577079
0.49498346 -0.29479626 1.0690678
0.49369588 -0.29889992 1.086625
0.48671925 -0.29963937 1.0917751
0.48161882 -0.30157909 1.1013373
0.48813146 -0.31098497 1.1385916
0.49489009 -0.32088405 1.1777799
0.47590348 -0.31414622 1.1550835
0.49030924 -0.32960832 1.2151204
0.5003686 -0.34267327 1.2663684
0.4851318 -0.33858258 1.2534612
0.51160288 -0.36400792 1.3512664
0.49133274 -0.35652602 1.3255941
0.51041061 -0.3778713 1.408389
0.51455092 -0.38881204 1.4521391
0.50300586 -0.38811201 1.4519634
0.49642107 -0.39129162 1.4664158
0.49810836 -0.40127534 1.50666
0.50280142 -0.41418508 1.5580834
0.50160295 -0.42272511 1.5929738
0.47764158 -0.41203213 1.5546166
0.46224177 -0.40838626 1.5429738
0.45753285 -0.41423893 1.567531
0.46984813 -0.43619379 1.6537082
0.4625321 -0.44059294 1.6727844
0.43075216 -0.42130029 1.6009488
0.42820743 -0.43032667 1.6376512
0.4206768 -0.43471125 1.6565273
0.41359475 -0.43982804 1.6782039
0.40801942 -0.44690171 1.7074101
0.39967203 -0.45128247 1.7262243
0.40706274 -0.4742794 1.8169359
0.39548966 -0.47596797 1.8253624
0.43859494 -0.54581708 2.0976062
0.45545164 -0.58677322 2.2583468
0.44491014 -0.59413475 2.2890089
0.42882726 -0.59437376 2.2919943
0.41732827 -0.60123563 2.3206344
0.40381324 -0.60563707 2.3396719
0.38549635 -0.60290509 2.3308966
0.36325938 -0.59352386 2.2961295
0.36928034 -0.63159555 2.4461732
0.35403058 -0.63523895 2.46207
0.32031843 -0.60442114 2.3434148
0.29731089 -0.59154677 2.2945976
0.27476627 -0.57816386 2.2436562
0.26133063 -0.58348405 2.2656991
0.24874088 -0.59150809 2.2982652
0.22427821 -0.57045013 2.2169781
0.20934594 -0.57229573 2.2252109
0.193726 -0.57240784 2.2265868
0.17671661 -0.56807315 2.2104659
0.15112594 -0.53265697 2.0724311
0.12089249 -0.47157097 1.8335861
0.10806153 -0.47188151 1.8353349
0.093869008 -0.46552396 1.8108653
0.080925904 -0.46433929 1.806622
0.067466483 -0.45919916 1.7867945
0.053254761 -0.44541436 1.7329689
0.040524665 -0.43951803 1.7100399
0.029396949 -0.45335767 1.7645358
0.016743898 -0.44670704 1.7385305
0.0045421403 -0.44868743 1.7463557
-0.0073424624 -0.42598078 1.6571915
-0.018809766 -0.42177778 1.6406285
-0.030366279 -0.42201084 1.6414295
-0.041836869 -0.42125034 1.6382767
-0.052827425 -0.41702881 1.6214863
-0.065600447 -0.42587879 1.6559466
-0.07666336 -0.42263159 1.6428745
-0.088680342 -0.42480573 1.6510211
-0.094757624 -0.40132007 1.5584781
-0.1027988 -0.39016587 1.5142819
-0.10779051 -0.37062508 1.4371934
-0.11642014 -0.36587769 1.4180698
-0.12632196 -0.3655636 1.4162755
-0.13638838 -0.36573708 1.4163439
-0.14044575 -0.35087445 1.3575304
-0.142637 -0.33354977 1.2890981
-0.15194981 -0.33396071 1.2900184
-0.1609263 -0.33362779 1.2879878
-0.160974 -0.31581327 1.2176605
-0.16665792 -0.31030816 1.1954076
-0.17301182 -0.30652365 1.1798515
-0.17988503 -0.30396664 1.1690582
-0.18676876 -0.3016527 1.1591858
-0.19320634 -0.2988444 1.1473638
-0.19849521 -0.29455954 1.1297791
-0.20148242 -0.28732669 1.1007308
-0.20836735 -0.28598675 1.0945638
-0.21165216 -0.27998149 1.0702771
-0.21364845 -0.27275068 1.0412482
-0.21385954 -0.26380587 1.0056025
-0.22138871 -0.26417756 1.0060114
0.49954024 -0.29600343 1.0381893
0.49946731 -0.30070543 1.0574232
0.49391288 -0.30220678 1.0652465
0.48867202 -0.3039529 1.0739284
0.48958227 -0.30964825 1.0967796
0.48059285 -0.30917016 1.0974545
0.49618411 -0.3247641 1.1560514
0.48273334 -0.32156536 1.1469102
0.48405111 -0.32826659 1.1735326
0.49004647 -0.33844489 1.212824
0.49868965 -0.35086751 1.2603729
0.49733967 -0.35659933 1.2836711
0.4875297 -0.3563703 1.2852424
0.53043437 -0.39543006 1.4304127
0.52158874 -0.39671183 1.4376661
0.52165282 -0.40496308 1.4704529
0.49770427 -0.39452815 1.4346092
0.50508469 -0.409013 1.4903216
0.48879331 -0.40454465 1.4762655
0.49810323 -0.42154115 1.5413723
0.49498186 -0.42855823 1.5697044
0.48387185 -0.42882678 1.5730585
0.47136307 -0.42783865 1.571695
0.45082459 -0.4193328 1.5423362
0.45567271 -0.43460786 1.601295
0.43257123 -0.42332685 1.5614314
0.44474289 -0.44688508 1.6513398
0.42967457 -0.44361511 1.6412258
0.42091945 -0.44686252 1.6553904
0.41336811 -0.45161402 1.6751548
0.40757209 -0.45862553 1.7033706
0.39555103 -0.45884901 1.7061173
0.3864547 -0.46258768 1.7220079
0.3903867 -0.48268098 1.7993565
0.38656175 -0.49422517 1.8446214
0.37660551 -0.49846807 1.8624017
0.37505305 -0.51455039 1.9247899
0.38450903 -0.54752803 2.0509858
0.39477643 -0.58430654 2.1916854
0.37428147 -0.57670379 2.1647656
0.38748065 -0.62258881 2.3400898
0.35719138 -0.59957701 2.2547426
0.34780368 -0.61113846 2.3001869
0.3384845 -0.62396139 2.3503981
0.29758874 -0.57689494 2.173372
0.2913326 -0.59551114 2.2454026
0.26724395 -0.57772076 2.1791487
0.2587584 -0.59354794 2.2405152
0.23617628 -0.57699537 2.1787419
0.20420593 -0.53360701 2.014734
0.18138507 -0.50942475 1.9236085
0.1679347 -0.50977755 1.9257648
0.15078369 -0.49797076 1.881539
0.13132149 -0.47551796 1.7966491
0.11741187 -0.47052458 1.7781956
0.10495187 -0.47084138 1.7799202
0.091180958 -0.46456507 1.756441
0.079204105 -0.46689382 1.7657193
0.065254398 -0.4562946 1.7256165
0.052752845 -0.45328802 1.7144175
0.041138478 -0.45838252 1.7340782
0.028228765 -0.44725293 1.6917591
0.016826877 -0.46120322 1.7451136
0.0044197128 -0.44853878 1.6968188
-0.007329802 -0.43688095 1.65231
-0.018810118 -0.43332568 1.6386783
-0.030278103 -0.43229806 1.6346418
-0.041641731 -0.43075708 1.6285934
-0.053734768 -0.4357973 1.6476072
-0.065031558 -0.43373644 1.6394678
-0.074607246 -0.42254952 1.5964652
-0.088784643 -0.43694165 1.6509805
-0.092899665 -0.40421593 1.5257666
-0.10092238 -0.39352405 1.4845564
-0.11145686 -0.39371651 1.4847964
-0.11384556 -0.36757544 1.3846828
-0.12224961 -0.36345801 1.368453
-0.13585237 -0.37426692 1.408998
-0.13169245 -0.33800772 1.2704086
-0.14139871 -0.33970079 1.2762108
-0.14794472 -0.33405444 1.2540725
-0.15537596 -0.33093417 1.2415096
-0.16050768 -0.32351393 1.2125967
-0.17052738 -0.32619992 1.2220145
-0.17347026 -0.31574455 1.1815599
-0.17847554 -0.30983621 1.1583447
-0.18331781 -0.30417967 1.1360748
-0.1902404 -0.30230764 1.1281132
-0.19309022 -0.29437837 1.0972303
-0.19827254 -0.2904852 1.0816004
-0.20324662 -0.28659078 1.0659534
-0.20245069 -0.27513662 1.0217969
-0.21084204 -0.27653229 1.0260794
-0.21413882 -0.27137744 1.0056694
0.49138021 -0.29892233 1.019514
0.49428669 -0.3055115 1.0448002
0.49404413 -0.31033733 1.0640165
0.48642138 -0.31061029 1.0673947
0.47955823 -0.31138569 1.0724896
0.48340046 -0.319258 1.102401
0.48118147 -0.3233318 1.1190587
0.47949669 -0.32791555 1.1375247
0.48232445 -0.33580655 1.167663
0.48260075 -0.34217882 1.1925054
0.49665275 -0.35874024 1.253427
0.4915275 -0.36181757 1.2667422
0.48896006 -0.36693424 1.2872889
0.47312662 -0.36210108 1.2724645
0.51214379 -0.39990163 1.4094309
0.490583 -0.39098564 1.3800778
0.48108903 -0.39151323 1.3843255
0.47463992 -0.39459497 1.397673
0.46652234 -0.39639491 1.4064058
0.46066692 -0.4002414 1.4224584
0.48230323 -0.42870161 1.5270599
0.4562504 -0.41511568 1.4804069
0.46228471 -0.43077293 1.539081
0.44680727 -0.42666388 1.5264306
0.44045648 -0.43128264 1.5452656
0.43079358 -0.43281457 1.5529039
0.43177271 -0.44540644 1.600628
0.4245759 -0.45002478 1.6194446
0.40768456 -0.44433817 1.6007627
0.40532342 -0.45461792 1.6401156
0.39127222 -0.45200911 1.6325085
0.39251199 -0.46744943 1.6906976
0.38098595 -0.46818644 1.6952276
0.37165451 -0.47175771 1.71007
0.35524657 -0.46628383 1.6917626
0.3577531 -0.48612556 1.7661316
0.3443684 -0.48503479 1.7637931
0.33298102 -0.48678112 1.7718023
0.32677811 -0.49654296 1.8092155
0.31286889 -0.49491572 1.8047415
0.32870758 -0.54221976 1.9802917
0.28528926 -0.49163619 1.795486
0.27420554 -0.4946478 1.807898
0.26378453 -0.49920925 1.8259809
0.2505191 -0.49858084 1.8248681
0.238024 -0.49950054 1.829409
0.22419234 -0.49755988 1.8233212
0.21387355 -0.50365454 1.8468757
0.20116723 -0.50455409 1.8511727
0.18531486 -0.49713901 1.8246368
0.17011368 -0.49049231 1.8008598
0.15817083 -0.49292529 1.8106366
0.14403135 -0.48833841 1.794346
0.13103592 -0.48711997 1.7904705
0.1168387 -0.4806971 1.7672327
0.10319845 -0.47530454 1.747744
0.090730675 -0.47458163 1.7455134
0.077397235 -0.46839291 1.7229388
0.065144159 -0.46765488 1.7205309
0.052162334 -0.46015036 1.6929444
0.040160064 -0.45939752 1.6903638
0.027780825 -0.45187762 1.6625984
0.016040945 -0.45137051 1.660817
0.0042299819 -0.44071606 1.6212968
-0.0072448174 -0.44331524 1.6309426
-0.01838145 -0.43472752 1.5989909
-0.02978163 -0.43653342 1.6055852
-0.041054532 -0.4359926 1.6034124
-0.052111246 -0.4338854 1.5953727
-0.060779903 -0.41617516 1.5293669
-0.071658365 -0.41665632 1.5308443
-0.081840351 -0.41349238 1.518747
-0.089297295 -0.39888895 1.4641737
-0.097813427 -0.3915585 1.4365515
-0.10329771 -0.37461221 1.3732537
-0.11236932 -0.372471 1.3648152
-0.11928625 -0.36409229 1.3332331
-0.12705292 -0.35934636 1.3150824
-0.13141954 -0.34629014 1.266149
-0.14100167 -0.3477681 1.2709808
-0.1453972 -0.33704525 1.2306582
-0.15184647 -0.33202964 1.2114247
-0.15966363 -0.33038294 1.2046125
-0.16765736 -0.32925078 1.1996658
-0.17323229 -0.32370844 1.1784194
-0.17953649 -0.31997842 1.1638395
-0.18488562 -0.31495103 1.1444616
-0.18870354 -0.30785114 1.1174458
-0.18983831 -0.29712823 1.0771109
-0.19712767 -0.29649913 1.0738863
-0.2029525 -0.29379725 1.0630198
-0.20289168 -0.28307909 1.0227358
-0.20688428 -0.27856758 1.0052288
0.48692441 -0.31379929 1.0469251
0.48060015 -0.31485403 1.0528973
0.48045784 -0.32006243 1.0729676
0.48504665 -0.32865503 1.1046051
0.47449297 -0.32710826 1.101697
0.47588545 -0.33388811 1.1272179
0.47256461 -0.33754617 1.1420844
0.47300464 -0.34407458 1.1668184
0.47770119 -0.35400194 1.2032961
0.49747697 -0.3756963 1.2804445
0.47238284 -0.36368975 1.2413676
0.47852403 -0.37573209 1.2853445
0.47720736 -0.38228786 1.3103938
0.46562961 -0.3807247 1.3072665
0.47422114 -0.39593515 1.3624423
0.4596042 -0.39200661 1.3510299
0.45932975 -0.40040761 1.3825682
0.45244655 -0.40329644 1.3948725
0.45810008 -0.41775095 1.4476616
0.45289028 -0.42274746 1.4673756
0.4482539 -0.42853376 1.4898611
0.43660471 -0.42773634 1.4891908
0.42944857 -0.43141204 1.5042138
0.4182674 -0.4311305 1.5052589
0.4170661 -0.44139588 1.5434953
0.41146612 -0.44744256 1.5668502
0.40178126 -0.44926345 1.5752398
0.40371212 -0.46455675 1.6313446
0.39260805 -0.46531764 1.6359442
0.38362566 -0.46871781 1.6498685
0.37614772 -0.47423154 1.6712775
0.3645269 -0.47471318 1.6747527
0.36271182 -0.48843217 1.7253498
0.34937182 -0.48705167 1.7221165
0.33793056 -0.488314 1.7282504
0.3265982 -0.48983544 1.7352582
0.31637642 -0.49320802 1.748837
0.30565414 -0.49604526 1.7604591
0.29415783 -0.49781525 1.7682133
0.28136677 -0.49745443 1.7682761
0.27045608 -0.5005399 1.7806425
0.25610146 -0.49724162 1.7700419
0.24594525 -0.50217515 1.7889426
0.23294359 -0.50151986 1.7877114
0.22347635 -0.50883645 1.8150954
0.20559856 -0.49672714 1.7725261
0.19246477 -0.4952493 1.7681376
0.18346472 -0.50494289 1.8039358
0.16920324 -0.50052267 1.7888304
0.15283035 -0.488637 1.7467297
0.14218514 -0.49458417 1.7688699
0.12746617 -0.48614138 1.7390355
0.11544403 -0.48727974 1.7437111
0.10212227 -0.48254901 1.7271377
0.087796703 -0.47114775 1.6864036
0.076063596 -0.47226289 1.690814
0.062644608 -0.46137682 1.6518036
0.051453967 -0.46567592 1.6676055
0.039909083 -0.46836898 1.677552
0.026805842 -0.44732919 1.6016535
0.015643563 -0.45160738 1.6172181
0.0041950475 -0.44841421 1.60572
-0.0072065438 -0.45241222 1.6201671
-0.018282641 -0.44360703 1.5882753
-0.029515767 -0.44385919 1.5890757
-0.04134823 -0.4505024 1.6129236
-0.049271923 -0.42088675 1.5056744
-0.05907445 -0.41499034 1.4841139
-0.069382064 -0.41388565 1.4798236
-0.080095351 -0.41517329 1.4841264
-0.085756026 -0.39300716 1.4036899
-0.094641864 -0.38869026 1.3876835
-0.10352296 -0.3851679 1.374508
-0.10948355 -0.37231949 1.3276544
-0.11708997 -0.36665949 1.3067118
-0.12716141 -0.36898276 1.3145163
-0.1309482 -0.35399884 1.2599185
-0.13660689 -0.34566882 1.2292898
-0.1431862 -0.3405301 1.2101355
-0.15258706 -0.34230402 1.2158245
-0.16007082 -0.33981764 1.2061504
-0.16887832 -0.34025162 1.2069374
-0.17243764 -0.33058214 1.1714094
-0.17899548 -0.32728952 1.1587662
-0.18082663 -0.31602716 1.117529
-0.1889105 -0.3161833 1.1172172
-0.19171076 -0.30784252 1.0864528
-0.19563752 -0.30189097 1.0642443
-0.19997759 -0.2970002 1.0458256
-0.20240341 -0.28972334 1.0188833
-0.20791499 -0.28721759 1.0089697
0.47940338 -0.31676409 1.0289643
0.47200665 -0.3170428 1.0322437
0.47082585 -0.32157636 1.0495768
0.46443978 -0.32264921 1.0554475
0.47120053 -0.33305183 1.0923218
0.47115836 -0.33892983 1.1142178
0.46499726 -0.34053892 1.1218932
0.4677133 -0.34882793 1.1518995
0.466158 -0.35418233 1.17213
0.4712576 -0.364894 1.2103803
0.47346681 -0.37374112 1.2424442
0.47258487 -0.38045099 1.2673632
0.46288392 -0.38018927 1.2687665
0.4547902 -0.38126406 1.2746401
0.4544856 -0.38905197 1.3032302
0.45749217 -0.40007132 1.3428297
0.44521517 -0.39791662 1.3377026
0.44776416 -0.40921432 1.3783182
0.44400284 -0.41513294 1.4006532
0.43797949 -0.41916615 1.4165562
0.43973643 -0.43102041 1.459204
0.43178153 -0.43370673 1.4705045
0.42709944 -0.43990055 1.4938099
0.41827771 -0.44204229 1.5031977
0.41333303 -0.44850558 1.5274153
0.39933625 -0.44523191 1.5180978
0.39587903 -0.45385629 1.5497272
0.39245766 -0.46302471 1.583251
0.38301271 -0.46542299 1.5933903
0.37928787 -0.47513512 1.6288007
0.36732405 -0.47481647 1.6294779
0.36126301 -0.4823581 1.6573533
0.35424012 -0.48908541 1.6823967
0.34498489 -0.49309608 1.6979878
0.32911199 -0.48759559 1.6804657
0.31527016 -0.48480114 1.6722695
0.30955434 -0.49477446 1.7084833
0.29648229 -0.49332616 1.7048684
0.28974852 -0.50275147 1.7391342
0.26903754 -0.48768321 1.6878463
0.26211625 -0.49737084 1.722946
0.2547166 -0.50705737 1.7580307
0.23838063 -0.49903634 1.7311286
0.23280352 -0.51389128 1.7842426
0.21283434 -0.49685854 1.7256231
0.20547466 -0.50897968 1.769091
0.19276212 -0.50855595 1.7685392
0.17861788 -0.50403309 1.7535405
0.16820152 -0.51014006 1.7757908
0.15481888 -0.50751042 1.7673126
0.13896176 -0.49559358 1.7261316
0.1278078 -0.49976909 1.7414314
0.11158927 -0.48291829 1.6827455
0.10183496 -0.49335805 1.7199605
0.084517598 -0.46501869 1.6207
0.074859165 -0.47653666 1.6616013
0.062570438 -0.47248241 1.6476531
0.050215904 -0.46596202 1.6249638
0.038205013 -0.45970693 1.6031482
0.026134994 -0.4471617 1.5591261
0.015578688 -0.46110585 1.6083249
0.0040853196 -0.44772649 1.5612562
-0.0069899629 -0.44991103 1.5689421
-0.017458981 -0.43433291 1.5140281
-0.027655341 -0.42639735 1.4859798
-0.037777651 -0.42200682 1.4703685
-0.0464665 -0.40695846 1.4171939
-0.057028938 -0.41075036 1.4302998
-0.069206044 -0.42327392 1.4740796
-0.078710966 -0.41831335 1.4562801
-0.086052686 -0.40433806 1.4067345
-0.092963859 -0.39145228 1.3610007
-0.10160003 -0.38757128 1.3469017
-0.11074787 -0.38614169 1.3413807
-0.11659429 -0.37433887 1.2993853
-0.12561753 -0.37371916 1.2966418
-0.13116437 -0.36354864 1.2603419
-0.13883673 -0.36019391 1.2479391
-0.14500049 -0.35356405 1.2240258
-0.15119186 -0.34774995 1.2029542
-0.15571861 -0.33893672 1.1713642
-0.16060175 -0.33175769 1.145491
-0.17067176 -0.33546975 1.1576962
-0.17438698 -0.32692525 1.1270142
-0.18011095 -0.32273531 1.1115419
-0.18213974 -0.31255892 1.0751655
-0.19110076 -0.3146219 1.0814785
-0.19431815 -0.30743667 1.0555267
-0.19753869 -0.30079591 1.031476
-0.2013576 -0.29551405 1.0121555
-0.20644964 -0.29240426 1.0003792
0.46907043 -0.3175799 1.0048964
0.46381196 -0.31922129 1.0124911
0.46158764 -0.32304138 1.0270998
0.4710637 -0.33532122 1.0690813
0.47280648 -0.34242827 1.0944256
0.46568838 -0.34325621 1.0994297
0.45961878 -0.34490088 1.1070594
0.46206316 -0.35311249 1.1360812
0.4616591 -0.35941419 1.1589236
0.46475816 -0.36873594 1.1916867
0.46708021 -0.37779209 1.2236474
0.46764436 -0.38575786 1.2520875
0.46293533 -0.38960832 1.2670275
0.45708042 -0.39263371 1.2792429
0.4510783 -0.39565763 1.2914388
0.45199603 -0.40501261 1.3245646
0.44224212 -0.4050068 1.3267219
0.43954802 -0.41161191 1.3507706
0.43884242 -0.42042661 1.3821818
0.43124333 -0.42289737 1.3925102
0.4375481 -0.4394519 1.4497671
0.43125421 -0.44385961 1.4665731
0.4142659 -0.43720469 1.4463786
0.41138294 -0.44547725 1.4760468
0.39938965 -0.44406316 1.473261
0.3906095 -0.44624209 1.4824694
0.3911579 -0.45950273 1.5288851
0.38350475 -0.4636201 1.5445884
0.38033038 -0.47356093 1.5798861
0.3749499 -0.4812842 1.6077248
0.36311814 -0.480955 1.608377
0.34561113 -0.47283971 1.5826548
0.34380889 -0.48638955 1.6301154
0.33794028 -0.49493894 1.6606762
0.32744572 -0.49709058 1.6695479
0.3187868 -0.50229776 1.6887408
0.3061358 -0.50137728 1.687099
0.29009417 -0.49460045 1.6654903
0.28189322 -0.50118375 1.6892266
0.27502438 -0.51082981 1.7233647
0.25794092 -0.50151825 1.6929171
0.25196269 -0.51394451 1.7364633
0.24226542 -0.51967609 1.7571726
0.22612219 -0.51145214 1.7302158
0.20873626 -0.49930865 1.6897805
0.19819884 -0.50306422 1.703567
0.18448299 -0.49871621 1.6896055
0.16643324 -0.48123175 1.630639
0.16117595 -0.50088704 1.6986544
0.14707017 -0.49399877 1.6758006
0.1339815 -0.48961571 1.661451
0.12640327 -0.50646627 1.7197824
0.10798984 -0.47886628 1.6257563
0.097040899 -0.48172626 1.6360394
0.084018804 -0.47367448 1.6088564
0.070954204 -0.46281734 1.5719848
0.060905065 -0.47124857 1.6012139
0.047919661 -0.45562041 1.5478514
0.03729653 -0.45984265 1.5625384
0.02646978 -0.46405846 1.5771545
0.014619011 -0.44337159 1.5062548
0.0040827822 -0.45848298 1.5581621
-0.0069135185 -0.45596448 1.5495116
-0.017184768 -0.43805403 1.4879857
-0.027425699 -0.43328476 1.4715139
-0.037607577 -0.43046719 1.4616932
-0.047559652 -0.42680439 1.4489264
-0.057334606 -0.42313567 1.436095
-0.066218115 -0.41498694 1.4078556
-0.07727582 -0.42081413 1.4275029
-0.084199242 -0.40538582 1.3742304
-0.092582345 -0.39945975 1.3535051
-0.10117962 -0.39548585 1.3394353
-0.11021007 -0.39374286 1.3329699
-0.11550307 -0.37998053 1.2853205
-0.12205782 -0.3720839 1.2577375
-0.12803498 -0.36362639 1.2282184
-0.13560006 -0.36047241 1.2168148
-0.1437939 -0.35926858 1.2120439
-0.15263821 -0.35973448 1.2129377
-0.15724914 -0.35070872 1.1813979
-0.16524702 -0.3497715 1.1774406
-0.16558294 -0.33349353 1.121165
-0.16949132 -0.32558328 1.0934246
-0.17484042 -0.32101727 1.0770663
-0.1777509 -0.31254974 1.0474271
-0.18768266 -0.31661457 1.0603786
-0.19334105 -0.3134343 1.0486742
-0.19492158 -0.30413041 1.016181
-0.2017899 -0.30345175 1.0129378
-0.20728199 -0.30082318 1.0030614
0.45917961 -0.32363915 1.0006377
0.46130729 -0.33061522 1.024847
0.46196735 -0.33676052 1.0464919
0.46234563 -0.34291106 1.0681947
0.46021801 -0.3473883 1.0846386
0.45933971 -0.35298729 1.1046571
0.44925362 -0.35158622 1.1024475
0.47192857 -0.37625185 1.1832167
0.4586052 -0.37261122 1.1738966
0.46713522 -0.3869302 1.221917
0.45970932 -0.38833892 1.2286997
0.45547566 -0.39255601 1.2444642
0.44816515 -0.3942408 1.2520869
0.44422007 -0.39901975 1.269645
0.44496453 -0.40830803 1.3017528
0.43505704 -0.40801582 1.3029541
0.43192396 -0.41420704 1.3250844
0.42619964 -0.41814148 1.3399128
0.42282125 -0.42461756 1.3629799
0.42271325 -0.43477035 1.3980114
0.4221338 -0.44492924 1.4331061
0.40720302 -0.4400937 1.4193571
0.39887291 -0.44232586 1.4285848
0.39964166 -0.45503756 1.4720351
0.390369 -0.45670056 1.4793768
0.37936369 -0.45637333 1.4801558
0.37524503 -0.4645527 1.5087886
0.36985248 -0.47159794 1.5337045
0.3593747 -0.47239408 1.5380678
0.35074079 -0.47574186 1.5507821
0.33646756 -0.47140914 1.5381529
0.33181494 -0.4807193 1.5704461
0.32577679 -0.48860779 1.59805
0.32504433 -0.50532109 1.6548162
0.31364608 -0.50609177 1.6588839
0.29218486 -0.49004596 1.607216
0.28599516 -0.4993473 1.6393999
0.2799944 -0.50978863 1.6753581
0.26375622 -0.50169092 1.6497787
0.2533372 -0.50442201 1.6600709
0.23909824 -0.49944186 1.6446873
0.23145662 -0.50843972 1.6757175
0.22277462 -0.5160076 1.701969
0.20568982 -0.50386304 1.6625479
0.19301772 -0.50170457 1.6562976
0.18065047 -0.50010914 1.6518601
0.16835546 -0.49850553 1.647334
0.15496543 -0.49317721 1.6303178
0.14697726 -0.50556856 1.6723862
0.12862344 -0.48134804 1.5921599
0.11670266 -0.47885224 1.5843989
0.10647245 -0.48350075 1.6004558
0.093996331 -0.47784266 1.5820137
0.084510818 -0.48791513 1.6161089
0.071808994 -0.47966591 1.5888879
0.060035631 -0.47570118 1.5759352
0.047654092 -0.46400023 1.5370414
0.036728729 -0.46374086 1.5363715
0.025352769 -0.45517281 1.5078448
0.014425385 -0.44802868 1.4840291
0.0038536524 -0.44316769 1.467803
-0.0066590467 -0.44975135 1.489831
-0.017031303 -0.44459072 1.472504
-0.027195973 -0.43999609 1.4570241
-0.037144151 -0.43539521 1.4414774
-0.046439365 -0.42678097 1.4124594
-0.055897053 -0.42245477 1.3977467
-0.065730214 -0.42184341 1.3954166
-0.0750717 -0.41865033 1.3844088
-0.083449565 -0.41144609 1.3599517
-0.091941021 -0.40624005 1.3421403
-0.1009727 -0.40417591 1.3347908
-0.10419953 -0.3812288 1.2576655
-0.1131385 -0.38115945 1.2569231
-0.12033238 -0.37565252 1.2379959
-0.12933007 -0.37614462 1.23905
-0.13603944 -0.37034419 1.2190855
-0.14336835 -0.3668265 1.2067046
-0.14342989 -0.34616807 1.1372229
-0.15740034 -0.35949469 1.1808732
-0.16303617 -0.35339737 1.1598333
-0.16285023 -0.33588362 1.1008397
-0.1724306 -0.33920127 1.1110685
-0.17837119 -0.33538207 1.0975592
-0.18112288 -0.32614389 1.0660622
-0.18575084 -0.32089728 1.0478016
-0.18875886 -0.3133707 1.0219857
-0.19640413 -0.3138189 1.0225533
0.45517227 -0.33960512 1.0292088
0.45076093 -0.34217608 1.0393697
0.46511644 -0.35933691 1.0945909
0.45504981 -0.35790899 1.0924495
0.4514786 -0.36163133 1.106221
0.4554688 -0.37166324 1.1396024
0.45279804 -0.37653911 1.157006
0.44753402 -0.37940639 1.1681561
0.44712317 -0.38658363 1.1927634
0.44443178 -0.39203981 1.2120177
0.44436935 -0.40008861 1.2394167
0.43673727 -0.40151808 1.2460593
0.43916297 -0.41245523 1.2825898
0.43568689 -0.41820952 1.3028479
0.42665538 -0.41877043 1.3067186
0.42564559 -0.42741221 1.3360971
0.41524699 -0.42681161 1.3362401
0.41832837 -0.44037232 1.3812397
0.40416837 -0.43600523 1.3693731
0.40040487 -0.44291681 1.3932874
0.39683586 -0.45040926 1.4190607
0.39690346 -0.46254066 1.4596388
0.38310045 -0.4587304 1.4493608
0.37252691 -0.45868108 1.451023
0.36607403 -0.46384999 1.4693347
0.3580474 -0.46727493 1.4820435
0.36001128 -0.48435256 1.5385251
0.34381822 -0.47731218 1.517612
0.33402339 -0.47898316 1.5246041
0.32826862 -0.48675859 1.5511997
0.32367358 -0.49686232 1.5852911
0.30818391 -0.49036944 1.5658706
0.30533227 -0.50425565 1.6121317
0.29081017 -0.49920315 1.5972358
0.2820605 -0.50405151 1.614267
0.27246013 -0.50772953 1.6274807
0.2617892 -0.50965226 1.6349726
0.25188619 -0.51331979 1.6480714
0.235668 -0.50384593 1.6185143
0.22598322 -0.50808305 1.633352
0.21523924 -0.51027054 1.6414963
0.1996146 -0.50047302 1.6106535
0.18652232 -0.49621546 1.5977284
0.17640767 -0.49984083 1.6103735
0.16342337 -0.49527404 1.5963172
0.15414728 -0.50210267 1.6192926
0.14056845 -0.49488726 1.5964905
0.12831126 -0.49146485 1.5859739
0.11662725 -0.48978943 1.5810899
0.10608882 -0.49308088 1.592344
0.093035556 -0.48407385 1.5634391
0.081979416 -0.48442373 1.5649918
0.070820518 -0.48418099 1.5645586
0.059491374 -0.48246711 1.5592715
0.04771135 -0.4754757 1.5367025
0.035957251 -0.46466988 1.5016227
0.025176993 -0.46264026 1.4951396
0.014231804 -0.45240459 1.4618109
0.0038113503 -0.44860387 1.4494426
-0.0064895279 -0.44860294 1.4494334
-0.016417487 -0.43863955 1.4168464
-0.026276533 -0.43511185 1.4052277
-0.036534362 -0.43831202 1.4155285
-0.045911271 -0.43184379 1.3942198
-0.056087937 -0.43385977 1.4005604
-0.064261608 -0.4221108 1.3619367
-0.073587291 -0.42001674 1.3547809
-0.082235694 -0.41499025 1.3380195
-0.091493368 -0.41376293 1.3336089
-0.099336371 -0.40697089 1.3110191
-0.10342921 -0.3873038 1.2464535
-0.11272623 -0.38869581 1.2504789
-0.11760076 -0.37575307 1.2077943
-0.12639861 -0.37625843 1.2088639
-0.13311952 -0.37091216 1.1908604
-0.14004013 -0.36673176 1.1766241
-0.14286464 -0.35290736 1.1310335
-0.15480047 -0.36186591 1.1594236
-0.16095747 -0.35709119 1.14318
-0.16219278 -0.34238955 1.0947315
-0.17014627 -0.34257382 1.0945411
-0.17477082 -0.33633545 1.073518
-0.1770516 -0.32630548 1.0402223
-0.1826648 -0.32298228 1.0286211
-0.18709512 -0.31790847 1.0113475
-0.1952104 -0.31924203 1.0147424
0.45489499 -0.34134364 1.0070748
0.44914392 -0.34280217 1.0136929
0.45649555 -0.35448629 1.0510521
0.45741904 -0.36150467 1.0744524
0.45439664 -0.36560175 1.0890727
0.44976145 -0.36852813 1.1001563
0.45166689 -0.37702379 1.1281234
0.45526919 -0.38728741 1.1615189
0.4472492 -0.38787138 1.165517
0.44119081 -0.39021346 1.1748387
0.43991259 -0.39696386 1.1976112
0.44153038 -0.40666071 1.2294302
0.43270177 -0.40694243 1.2324346
0.43489575 -0.41782629 1.2679591
0.42399812 -0.41633493 1.2654727
0.42667672 -0.42840767 1.3047204
0.4161762 -0.42749941 1.3039732
0.41357645 -0.43485558 1.3287127
0.40488458 -0.43600696 1.3342633
0.40122908 -0.44277319 1.35718
0.40014797 -0.45279637 1.3902161
0.39377561 -0.45719844 1.4058129
0.38422191 -0.45804355 1.4103227
0.38115984 -0.46688673 1.4397147
0.37275788 -0.46950424 1.4496958
0.36377752 -0.47152427 1.4577775
0.35336852 -0.4717581 1.4602339
0.34445509 -0.47406471 1.4691299
0.34506056 -0.49003658 1.5208285
0.33461773 -0.49085343 1.5250205
0.32060447 -0.48631012 1.512324
0.31569427 -0.49574128 1.5434886
0.30304563 -0.49326572 1.5371788
0.2966724 -0.50120425 1.5636088
0.28349525 -0.49782076 1.554328
0.27763784 -0.50754064 1.5863267
0.2663393 -0.50771993 1.5881873
0.25233352 -0.50252384 1.5730025
0.24843007 -0.51790172 1.6228174
0.23333052 -0.51030308 1.5999165
0.22155206 -0.50955826 1.5986366
0.21460558 -0.52045071 1.634183
0.19703805 -0.50535661 1.5873021
0.18881488 -0.5138486 1.6151545
0.17361122 -0.50321269 1.582252
0.16293025 -0.50511771 1.5890967
0.14875244 -0.49565598 1.5597705
0.13956258 -0.50262833 1.5826136
0.12845565 -0.50331563 1.5854315
0.11689845 -0.50220108 1.5824641
0.10387958 -0.49389908 1.5565649
0.092468232 -0.49216947 1.5515218
0.079796694 -0.48235312 1.5206704
0.068762615 -0.4809064 1.5164125
0.058009036 -0.48124802 1.517799
0.045477852 -0.46362415 1.4618899
0.035322126 -0.46694356 1.4726577
0.024730394 -0.46486837 1.4661852
0.014093515 -0.45829576 1.4453282
0.0037292712 -0.44902205 1.4158112
-0.0062905094 -0.44483027 1.4024442
-0.016494246 -0.45080957 1.4214488
-0.025852721 -0.43792385 1.3802801
-0.035168819 -0.43161756 1.3600392
-0.044014573 -0.42350975 1.3340173
-0.054273274 -0.42946276 1.3527523
-0.064798117 -0.43540829 1.3714114
-0.071796305 -0.41920403 1.3194836
-0.078819975 -0.40688655 1.279911
-0.089299135 -0.41311291 1.2993337
-0.095131598 -0.39869371 1.2530172
-0.10523464 -0.40311298 1.266602
-0.11078712 -0.39078128 1.2268821
-0.11971837 -0.39130256 1.2279949
-0.12670806 -0.38584039 1.2100604
-0.13240305 -0.37738687 1.1826055
-0.13771792 -0.36893171 1.1551331
-0.14418915 -0.36435783 1.1399583
-0.14745721 -0.35261515 1.1020433
-0.15887921 -0.36057413 1.1265316
-0.1600139 -0.34554633 1.0781982
-0.164821 -0.33947191 1.0582092
-0.17495963 -0.34443009 1.0730768
-0.1785173 -0.33656144 1.0473789
-0.18369901 -0.33226928 1.0329686
-0.18851571 -0.32767758 1.0176001
0.4488517 -0.3502689 1.0113033
0.45619854 -0.3622075 1.0485818
0.43788978 -0.35383856 1.0261885
0.45991823 -0.37835068 1.1006426
0.44160861 -0.36997005 1.0781263
0.44435334 -0.37924483 1.1077559
0.4401519 -0.38283217 1.1205729
0.43917623 -0.38941947 1.1423049
0.43525958 -0.39360878 1.1569233
0.42920539 -0.39599565 1.166164
0.4291102 -0.40409282 1.1924531
0.43022949 -0.41369969 1.2233009
0.42848232 -0.42090508 1.2469968
0.42282125 -0.42449877 1.2598662
0.41700092 -0.4280909 1.272718
0.41647878 -0.43741316 1.3028241
0.41077906 -0.44160926 1.3174956
0.40023056 -0.44066966 1.316631
0.39882356 -0.44999784 1.3467903
0.39073801 -0.4520731 1.3549935
0.38459691 -0.45656478 1.3704985
0.38347292 -0.46741211 1.4053077
0.37292841 -0.4670577 1.4060589
0.3692182 -0.47548464 1.4335146
0.35553047 -0.47117874 1.4221343
0.34780189 -0.47474909 1.4347283
0.33624753 -0.47315648 1.4315076
0.33144912 -0.48127216 1.4579443
0.3222439 -0.48331282 1.4657645
0.32058811 -0.49720085 1.5098902
0.30431241 -0.48859465 1.4849726
0.29809263 -0.496095 1.5094578
0.29348069 -0.50694144 1.5442268
0.27601638 -0.49556747 1.5105788
0.27109918 -0.50671184 1.5462158
0.2567845 -0.50049353 1.5283023
0.2568045 -0.52290773 1.5986863
0.24054176 -0.51271302 1.5683895
0.22758393 -0.50890762 1.5577432
0.21777223 -0.51210761 1.5686966
0.20277297 -0.50279307 1.5408731
0.19725524 -0.51726979 1.5866448
0.18726218 -0.52106243 1.5993061
0.16937374 -0.50195014 1.540908
0.16166472 -0.5124445 1.5742381
0.14560416 -0.49605599 1.5241143
0.13780941 -0.50745499 1.5601692
0.12402165 -0.4968501 1.5278546
0.11403669 -0.50090367 1.5410099
0.1008544 -0.49027938 1.5084996
0.089597248 -0.48759302 1.5005982
0.078951426 -0.48795614 1.5021247
0.067989334 -0.48617166 1.4969209
0.055193994 -0.4681724 1.4412156
0.045212459 -0.47126469 1.4510741
0.034777869 -0.47006854 1.4475404
0.024427257 -0.46947712 1.4458389
0.01379883 -0.45878527 1.4126495
0.0036870025 -0.45389748 1.3974763
-0.0062608812 -0.45267311 1.393659
-0.016143823 -0.45113623 1.3888224
-0.025694007 -0.44500494 1.3696399
-0.036168735 -0.45385319 1.3970323
-0.044357903 -0.43639386 1.3425108
-0.05438786 -0.44002983 1.3535911
-0.061995137 -0.42592448 1.3094372
-0.070518851 -0.42098752 1.2937698
-0.078245632 -0.41298836 1.2685467
-0.085943438 -0.40651342 1.2480321
-0.094782308 -0.40614635 1.2464645
-0.10071702 -0.39446795 1.2097254
-0.1086797 -0.3919526 1.2014199
-0.11881539 -0.39706835 1.2167605
-0.12417098 -0.38660216 1.1837149
-0.1291714 -0.37644008 1.1516033
-0.13472825 -0.36902422 1.1279942
-0.1439745 -0.37198186 1.1364949
-0.15172569 -0.37096652 1.1326501
-0.15167552 -0.3519522 1.0731035
-0.16280693 -0.3594695 1.095598
-0.16905315 -0.35600427 1.0841025
-0.17120989 -0.34461388 1.0481267
-0.1774503 -0.34205931 1.0394155
-0.18291821 -0.33828363 1.0269176
0.44931707 -0.35832977 1.0106066
0.44311646 -0.35954461 1.0163056
0.4327938 -0.35739854 1.0123142
0.43708602 -0.36746168 1.0434375
0.44845602 -0.38395494 1.0932034
0.44160265 -0.38517156 1.0989208
0.44227049 -0.39311996 1.1241217
0.43854606 -0.39739773 1.1387063
0.42999333 -0.39738321 1.1408043
0.42664191 -0.40227228 1.1571505
0.42850557 -0.41238239 1.1887481
0.42494011 -0.41758424 1.206046
0.42390886 -0.42555445 1.2314603
0.41144368 -0.42214468 1.2235075
0.41848373 -0.43904483 1.2751763
0.40873799 -0.43870774 1.2762055
0.39956173 -0.4389804 1.2789811
0.3972218 -0.44695857 1.3044651
0.3932035 -0.45339665 1.3254143
0.38029018 -0.44964465 1.3161911
0.37899065 -0.45978668 1.3480905
0.38123026 -0.47488007 1.3947234
0.35914376 -0.45966846 1.3513173
0.35627145 -0.46888426 1.3804665
0.35620597 -0.48243785 1.422562
0.34623528 -0.48298633 1.4258932
0.34119391 -0.49065733 1.450455
0.33164358 -0.49212655 1.4564672
0.32040718 -0.49110818 1.4549881
0.31155935 -0.49380621 1.4645889
0.30126801 -0.49432591 1.4676183
0.29168099 -0.49608147 1.4743094
0.28430375 -0.50187111 1.4930832
0.2712546 -0.49770999 1.4818999
0.26326308 -0.50286812 1.498702
0.25239301 -0.50273407 1.4995298
0.24586211 -0.51161742 1.5274982
0.23494731 -0.51178277 1.5291433
0.22579363 -0.51598889 1.5429394
0.2082914 -0.50056607 1.497378
0.20324935 -0.51503849 1.5421088
0.18665388 -0.50021523 1.4981951
0.1766099 -0.5022108 1.5050979
0.17121398 -0.51854336 1.5553855
0.1544295 -0.50025696 1.5007498
0.14380203 -0.50067198 1.5027149
0.1342327 -0.50513589 1.5169121
0.12347923 -0.50553721 1.5187398
0.11062104 -0.49656788 1.4920695
0.10015681 -0.49757725 1.4956331
0.088413 -0.49171138 1.4782627
0.076820925 -0.48521212 1.4589077
0.066361547 -0.48494959 1.4584484
0.05558835 -0.4818691 1.4493734
0.04532795 -0.48284101 1.4525664
0.034233879 -0.47287428 1.4224504
0.024012888 -0.47164521 1.4188504
0.013577896 -0.46135053 1.3876325
0.0036546711 -0.4597947 1.3829416
-0.0061339778 -0.45323429 1.3629837
-0.015826464 -0.45197725 1.359109
-0.02539397 -0.44946405 1.351369
-0.034853004 -0.44694445 1.3435653
-0.044141009 -0.44379377 1.3337995
-0.052499752 -0.43407896 1.304039
-0.060974091 -0.42810637 1.2856182
-0.070060968 -0.42743635 1.2832726
-0.077497363 -0.41801891 1.2543147
-0.085819848 -0.41484061 1.2442758
-0.093006797 -0.40728766 1.2209218
-0.10251902 -0.41034061 1.2297245
-0.10809731 -0.39841101 1.1930338
-0.11626797 -0.39708549 1.1884828
-0.11967532 -0.38078523 1.1385156
-0.12845488 -0.38257045 1.1433356
-0.13463615 -0.37686798 1.1254438
-0.14009924 -0.36991617 1.1037529
-0.14900364 -0.37230924 1.1103036
-0.15524974 -0.36815473 1.0970223
-0.16324797 -0.3683565 1.0968736
-0.16474354 -0.35454527 1.0544028
-0.16897558 -0.34758353 1.0326084
-0.17369784 -0.34217668 1.0154946
-0.18427482 -0.34827426 1.0330025
0.43718132 -0.36234918 1.000706
0.4354544 -0.36732051 1.0168285
0.43969366 -0.37759495 1.0479026
0.43102455 -0.37695822 1.0482655
0.42167366 -0.37569016 1.0467944
0.42407098 -0.38504058 1.0753481
0.41763663 -0.38658017 1.0817925
0.42903814 -0.40501815 1.1362609
0.41984773 -0.40437025 1.1365086
0.4227939 -0.41562641 1.1706759
0.41183978 -0.4134047 1.1663818
0.41351977 -0.42404276 1.1988446
0.41026464 -0.4299776 1.2178733
0.40382868 -0.43277109 1.2278861
0.39755964 -0.4358764 1.2387745
0.39255971 -0.44055262 1.2541708
0.38818449 -0.44617289 1.2722845
0.37982833 -0.44738266 1.2776504
0.38081339 -0.45993593 1.3158102
0.3749136 -0.46461153 1.33119
0.36534366 -0.46486732 1.3337299
0.35551658 -0.46480101 1.3352859
0.35179719 -0.47294194 1.3606719
0.34453791 -0.47665921 1.3731797
0.33312529 -0.47468105 1.3690517
0.32975918 -0.48440069 1.3990171
0.32034734 -0.48557591 1.4040188
0.31512991 -0.49339563 1.4284205
0.30938768 -0.50089836 1.4518903
0.29614335 -0.49635589 1.4400332
0.28728169 -0.49909553 1.4494717
0.2768946 -0.49929231 1.4514034
0.26683414 -0.50011683 1.45513
0.25885069 -0.50506151 1.4709345
0.24862827 -0.50587398 1.4745408
0.2376214 -0.50509149 1.4733977
0.22578694 -0.50239444 1.4665518
0.21705787 -0.5066815 1.4802589
0.20633316 -0.50651217 1.4807687
0.19352382 -0.50092852 1.4652227
0.1867563 -0.51124126 1.4966196
0.17276204 -0.50182253 1.4696105
0.16595039 -0.51339889 1.5046825
0.15307094 -0.50650817 1.485033
0.14226906 -0.50597554 1.4841564
0.13082476 -0.50288737 1.4756501
0.1201938 -0.50265741 1.4755636
0.10901506 -0.49987134 1.4678415
0.097512327 -0.49484646 1.4534183
0.086612105 -0.49204358 1.4455338
0.077112906 -0.49751937 1.4621822
0.065119401 -0.48609525 1.4285862
0.05418136 -0.47976214 1.4100536
0.043655429 -0.47501481 1.396179
0.03359979 -0.47408581 1.3936006
0.023916585 -0.47984505 1.4108545
0.013476507 -0.46774235 1.3749683
0.003600006 -0.46264693 1.3598622
-0.0061043277 -0.46073291 1.3541666
-0.015771642 -0.46008748 1.3521963
-0.024776587 -0.44795734 1.3160449
-0.034512158 -0.45208102 1.3281608
-0.042557985 -0.43706977 1.2833685
-0.052613918 -0.44436815 1.3048289
-0.060309161 -0.43253419 1.2694058
-0.069551617 -0.43344438 1.2718017
-0.077616602 -0.42765588 1.2542653
-0.084533721 -0.41740182 1.2234421
-0.093155399 -0.41670182 1.2209436
-0.10221361 -0.41790697 1.2240555
-0.10793717 -0.40636688 1.189337
-0.11317487 -0.3948251 1.1546021
-0.12439115 -0.40429252 1.1820867
-0.13003916 -0.39560863 1.1557672
-0.13064736 -0.37355879 1.0898876
-0.14224266 -0.38364372 1.1190692
-0.14391585 -0.36732149 1.0701358
-0.15330422 -0.37135085 1.0813315
-0.15830807 -0.36488366 1.0614948
-0.16289474 -0.35809734 1.0407064
-0.17218417 -0.36179224 1.0507989
-0.17420867 -0.35055536 1.0168684
0.43552116 -0.37510294 1.015143
0.42886633 -0.37604228 1.0198728
0.42359421 -0.37825087 1.0280739
0.42488387 -0.38651142 1.0529873
0.43306416 -0.40147537 1.0965146
0.41633394 -0.39347896 1.0764467
0.41416195 -0.39919719 1.0943798
0.41175684 -0.40491787 1.1123352
0.41357896 -0.41511801 1.1428027
0.41405195 -0.42436615 1.170665
0.4080328 -0.4272157 1.1806569
0.4060865 -0.43454927 1.2032044
0.39417002 -0.43130392 1.1960585
0.39241037 -0.43927881 1.2204031
0.38780338 -0.44436759 1.2366391
0.37997535 -0.44592226 1.2428989
0.37341589 -0.44907951 1.2536535
0.37272316 -0.45963195 1.285314
0.3685478 -0.46632773 1.3060809
0.35567021 -0.46207622 1.2957861
0.35309601 -0.47134483 1.323826
0.34521055 -0.47384718 1.3326349
0.3369908 -0.47602284 1.3404819
0.33444443 -0.48658305 1.3722053
0.32414711 -0.48617059 1.3726211
0.32179207 -0.49802378 1.4080416
0.31005764 -0.49566343 1.4028165
0.30173916 -0.49878913 1.4132397
0.29461217 -0.50417417 1.4301077
0.28343162 -0.50276232 1.4274486
0.27511734 -0.50652051 1.4395819
0.26444644 -0.50606525 1.439569
0.25574145 -0.50948894 1.4506649
0.24751684 -0.51420385 1.465444
0.23521322 -0.51048732 1.4558927
0.21977596 -0.49930376 1.4247367
0.21050856 -0.50172752 1.4327588
0.20372766 -0.51063383 1.459464
0.19412324 -0.51304752 1.4673877
0.18104936 -0.50604182 1.4480287
0.16902672 -0.50129789 1.4351401
0.15966383 -0.50433826 1.4447231
0.14988551 -0.50639814 1.4514252
0.13984156 -0.50780159 1.456181
0.12791657 -0.50204927 1.4401441
0.11752028 -0.50181258 1.4400412
0.10796531 -0.50546908 1.4511844
0.095434941 -0.4944894 1.4198049
0.085148893 -0.49390423 1.4185348
0.074737728 -0.49233595 1.4143606
0.064859539 -0.4943375 1.420505
0.052631695 -0.47584131 1.3670521
0.04330219 -0.48108014 1.3825012
0.033282243 -0.47948131 1.3780366
0.023296051 -0.47722468 1.3716122
0.013329178 -0.47235817 1.3575543
0.003582557 -0.47008702 1.3509932
-0.0058720079 -0.45251885 1.2999223
-0.015159663 -0.45153531 1.2970136
-0.024494551 -0.45217165 1.2987692
-0.034147002 -0.45670468 1.3118041
-0.041969232 -0.44008794 1.2633376
-0.050992269 -0.43972924 1.2620749
-0.061243143 -0.44846994 1.2871993
-0.067508914 -0.42956215 1.2319813
-0.077792406 -0.43763876 1.2550868
-0.084537916 -0.42620108 1.2215021
-0.091950282 -0.41996118 1.2029767
-0.09832608 -0.41046709 1.1749854
-0.10557801 -0.40584421 1.1610968
-0.11719853 -0.41746074 1.1942346
-0.12136636 -0.40275723 1.1510718
-0.13130578 -0.40786287 1.1652534
-0.13166662 -0.38439056 1.0966988
-0.13919513 -0.38331959 1.0929555
-0.14642856 -0.38159463 1.0872877
-0.1517528 -0.3753235 1.0684599
-0.16067639 -0.37813085 1.0758177
-0.16191281 -0.36342436 1.0326209
-0.16979645 -0.36427835 1.0342888
-0.1729818 -0.355407 1.0079142
0.43218812 -0.38676038 1.0259902
0.42186889 -0.38446945 1.0219358
0.41583225 -0.38606876 1.0283329
0.41625834 -0.39384383 1.051435
0.41266495 -0.39804459 1.0648763
0.42049056 -0.41364524 1.1093156
0.41081572 -0.41231352 1.1077442
0.40246031 -0.41227847 1.1096545
0.39566067 -0.41386923 1.115966
0.39979666 -0.42721426 1.1544354
0.39592308 -0.43239999 1.1706034
0.39418337 -0.44020256 1.1939621
0.38525745 -0.44015464 1.1957421
0.38108799 -0.445667 1.2127992
0.38052619 -0.4557668 1.2425178
0.37181506 -0.45636451 1.2460076
0.36489952 -0.45925251 1.2557945
0.3639648 -0.47001451 1.2873815
0.35467392 -0.47027272 1.2898484
0.34874445 -0.47512475 1.3050355
0.34426048 -0.48227614 1.3266072
0.33378437 -0.48120505 1.3252709
0.32800019 -0.48703656 1.3431329
0.31660262 -0.48463583 1.3379937
0.31509733 -0.49770707 1.3760462
0.30620006 -0.49957892 1.382784
0.29351106 -0.49518123 1.371918
0.28514779 -0.49802864 1.3812954
0.27648473 -0.50054139 1.3896992
0.27000102 -0.50733989 1.4101086
0.25259051 -0.49333304 1.3719918
0.24321008 -0.49450392 1.3764778
0.24063694 -0.51020801 1.4218603
0.22937286 -0.50806546 1.4169501
0.2201879 -0.51054335 1.4250162
0.20913284 -0.50871539 1.4208854
0.20008832 -0.51184183 1.4306953
0.19116092 -0.51562458 1.4423218
